649291.5913958437 7536366.536952651 13.433300018310549 0.0 6.732603559251647 0.0
649311.5854989826 7536366.536952651 14.321100234985352 0.0 6.732603559251647 0.0
649331.5796021215 7536366.536952651 15.163299560546877 0.0 6.732603559251647 0.0
649351.5737052604 7536366.536952651 15.928600311279297 0.0 6.732603559251647 0.0
649371.5678083993 7536366.536952651 16.5841007232666 0.0 6.732603559251647 0.0
649391.5619115384 7536366.536952651 17.103599548339844 0.0 6.732603559251647 0.0
649411.5560146773 7536366.536952651 17.482799530029297 0.0 6.732603559251647 0.0
649431.5501178162 7536366.536952651 17.7362003326416 0.0 6.732603559251647 0.0
649451.5442209552 7536366.536952651 17.881200790405273 0.0 6.732603559251647 0.0
649471.538324094 7536366.536952651 17.928499221801754 0.0 6.732603559251647 0.0
649491.5324272331 7536366.536952651 17.88610076904297 0.0 6.732603559251647 0.0
649511.526530372 7536366.536952651 17.7731990814209 0.0 6.732603559251647 0.0
649531.520633511 7536366.536952651 17.61590003967285 0.0 6.732603559251647 0.0
649551.5147366499 7536366.536952651 17.430400848388672 0.0 6.732603559251647 0.0
649571.5088397888 7536366.536952651 17.22610092163086 0.0 6.732603559251647 0.0
649591.5029429278 7536366.536952651 17.011699676513672 0.0 6.732603559251647 0.0
649611.4970460668 7536366.536952651 16.79509925842285 0.0 6.732603559251647 0.0
649631.4911492057 7536366.536952651 16.583799362182617 0.0 6.732603559251647 0.0
649651.4852523446 7536366.536952651 16.389799118041992 0.0 6.732603559251647 0.0
649671.4793554837 7536366.536952651 16.23150062561035 0.0 6.732603559251647 0.0
649691.4734586226 7536366.536952651 16.128999710083008 0.0 6.732603559251647 0.0
649711.4675617615 7536366.536952651 16.090200424194336 0.0 6.732603559251647 0.0
649731.4616649004 7536366.536952651 16.10219955444336 0.0 6.732603559251647 0.0
649751.4557680395 7536366.536952651 16.142000198364254 0.0 6.732603559251647 0.0
649771.4498711784 7536366.536952651 16.187599182128906 0.0 6.732603559251647 0.0
649791.4439743173 7536366.536952651 16.219499588012695 0.0 6.732603559251647 0.0
649811.4380774562 7536366.536952651 16.224300384521484 0.0 6.732603559251647 0.0
649831.4321805952 7536366.536952651 16.200300216674805 0.0 6.732603559251647 0.0
649851.4262837342 7536366.536952651 16.15130043029785 0.0 6.732603559251647 0.0
649871.4203868731 7536366.536952651 16.086599349975582 0.0 6.732603559251647 0.0
649891.414490012 7536366.536952651 16.025999069213867 0.0 6.732603559251647 0.0
649911.408593151 7536366.536952651 15.977999687194824 0.0 6.732603559251647 0.0
649931.4026962899 7536366.536952651 15.930399894714355 0.0 6.732603559251647 0.0
649951.3967994289 7536366.536952651 15.879300117492676 0.0 6.732603559251647 0.0
649971.3909025678 7536366.536952651 15.825400352478027 0.0 6.732603559251647 0.0
649991.3850057068 7536366.536952651 15.770299911499023 0.0 6.732603559251647 0.0
649291.5913958437 7536346.54284951 14.389599800109863 0.0 6.732603559251647 0.0
649311.5854989826 7536346.54284951 15.262999534606932 0.0 6.732603559251647 0.0
649331.5796021215 7536346.54284951 16.082199096679688 0.0 6.732603559251647 0.0
649351.5737052604 7536346.54284951 16.817399978637695 0.0 6.732603559251647 0.0
649371.5678083993 7536346.54284951 17.436100006103516 0.0 6.732603559251647 0.0
649391.5619115384 7536346.54284951 17.908599853515625 0.0 6.732603559251647 0.0
649411.5560146773 7536346.54284951 18.22450065612793 0.0 6.732603559251647 0.0
649431.5501178162 7536346.54284951 18.396299362182617 0.0 6.732603559251647 0.0
649451.5442209552 7536346.54284951 18.443199157714844 0.0 6.732603559251647 0.0
649471.538324094 7536346.54284951 18.38759994506836 0.0 6.732603559251647 0.0
649491.5324272331 7536346.54284951 18.26619911193848 0.0 6.732603559251647 0.0
649511.526530372 7536346.54284951 18.12190055847168 0.0 6.732603559251647 0.0
649531.520633511 7536346.54284951 17.963600158691406 0.0 6.732603559251647 0.0
649551.5147366499 7536346.54284951 17.77899932861328 0.0 6.732603559251647 0.0
649571.5088397888 7536346.54284951 17.565799713134766 0.0 6.732603559251647 0.0
649591.5029429278 7536346.54284951 17.33139991760254 0.0 6.732603559251647 0.0
649611.4970460668 7536346.54284951 17.086599349975582 0.0 6.732603559251647 0.0
649631.4911492057 7536346.54284951 16.84280014038086 0.0 6.732603559251647 0.0
649651.4852523446 7536346.54284951 16.614200592041016 0.0 6.732603559251647 0.0
649671.4793554837 7536346.54284951 16.420000076293945 0.0 6.732603559251647 0.0
649691.4734586226 7536346.54284951 16.285900115966797 0.0 6.732603559251647 0.0
649711.4675617615 7536346.54284951 16.226600646972656 0.0 6.732603559251647 0.0
649731.4616649004 7536346.54284951 16.220699310302734 0.0 6.732603559251647 0.0
649751.4557680395 7536346.54284951 16.241500854492188 0.0 6.732603559251647 0.0
649771.4498711784 7536346.54284951 16.2677001953125 0.0 6.732603559251647 0.0
649791.4439743173 7536346.54284951 16.28059959411621 0.0 6.732603559251647 0.0
649811.4380774562 7536346.54284951 16.2632999420166 0.0 6.732603559251647 0.0
649831.4321805952 7536346.54284951 16.220199584960938 0.0 6.732603559251647 0.0
649851.4262837342 7536346.54284951 16.15730094909668 0.0 6.732603559251647 0.0
649871.4203868731 7536346.54284951 16.0846004486084 0.0 6.732603559251647 0.0
649891.414490012 7536346.54284951 16.026199340820312 0.0 6.732603559251647 0.0
649911.408593151 7536346.54284951 15.992600440979004 0.0 6.732603559251647 0.0
649931.4026962899 7536346.54284951 15.963899612426756 0.0 6.732603559251647 0.0
649951.3967994289 7536346.54284951 15.934700012207031 0.0 6.732603559251647 0.0
649971.3909025678 7536346.54284951 15.903400421142578 0.0 6.732603559251647 0.0
649991.3850057068 7536346.54284951 15.869799613952637 0.0 6.732603559251647 0.0
649291.5913958437 7536326.548746373 15.248299598693848 0.0 6.732603559251647 0.0
649311.5854989826 7536326.548746373 16.10650062561035 0.0 6.732603559251647 0.0
649331.5796021215 7536326.548746373 16.904199600219727 0.0 6.732603559251647 0.0
649351.5737052604 7536326.548746373 17.61400032043457 0.0 6.732603559251647 0.0
649371.5678083993 7536326.548746373 18.204599380493164 0.0 6.732603559251647 0.0
649391.5619115384 7536326.548746373 18.63719940185547 0.0 6.732603559251647 0.0
649411.5560146773 7536326.548746373 18.893600463867188 0.0 6.732603559251647 0.0
649431.5501178162 7536326.548746373 18.99609947204589 0.0 6.732603559251647 0.0
649451.5442209552 7536326.548746373 18.964099884033203 0.0 6.732603559251647 0.0
649471.538324094 7536326.548746373 18.822200775146484 0.0 6.732603559251647 0.0
649491.5324272331 7536326.548746373 18.62380027770996 0.0 6.732603559251647 0.0
649511.526530372 7536326.548746373 18.459199905395508 0.0 6.732603559251647 0.0
649531.520633511 7536326.548746373 18.30909919738769 0.0 6.732603559251647 0.0
649551.5147366499 7536326.548746373 18.124799728393555 0.0 6.732603559251647 0.0
649571.5088397888 7536326.548746373 17.90019989013672 0.0 6.732603559251647 0.0
649591.5029429278 7536326.548746373 17.644800186157227 0.0 6.732603559251647 0.0
649611.4970460668 7536326.548746373 17.372900009155273 0.0 6.732603559251647 0.0
649631.4911492057 7536326.548746373 17.098400115966797 0.0 6.732603559251647 0.0
649651.4852523446 7536326.548746373 16.836599349975582 0.0 6.732603559251647 0.0
649671.4793554837 7536326.548746373 16.60540008544922 0.0 6.732603559251647 0.0
649691.4734586226 7536326.548746373 16.433700561523438 0.0 6.732603559251647 0.0
649711.4675617615 7536326.548746373 16.355600357055664 0.0 6.732603559251647 0.0
649731.4616649004 7536326.548746373 16.327899932861328 0.0 6.732603559251647 0.0
649751.4557680395 7536326.548746373 16.324499130249023 0.0 6.732603559251647 0.0
649771.4498711784 7536326.548746373 16.326000213623047 0.0 6.732603559251647 0.0
649791.4439743173 7536326.548746373 16.314899444580078 0.0 6.732603559251647 0.0
649811.4380774562 7536326.548746373 16.279199600219727 0.0 6.732603559251647 0.0
649831.4321805952 7536326.548746373 16.22130012512207 0.0 6.732603559251647 0.0
649851.4262837342 7536326.548746373 16.14970016479492 0.0 6.732603559251647 0.0
649871.4203868731 7536326.548746373 16.077199935913082 0.0 6.732603559251647 0.0
649891.414490012 7536326.548746373 16.020700454711914 0.0 6.732603559251647 0.0
649911.408593151 7536326.548746373 15.986499786376951 0.0 6.732603559251647 0.0
649931.4026962899 7536326.548746373 15.965700149536133 0.0 6.732603559251647 0.0
649951.3967994289 7536326.548746373 15.950300216674805 0.0 6.732603559251647 0.0
649971.3909025678 7536326.548746373 15.936200141906738 0.0 6.732603559251647 0.0
649991.3850057068 7536326.548746373 15.920700073242188 0.0 6.732603559251647 0.0
649291.5913958437 7536306.554643233 16.00779914855957 0.0 6.732603559251647 0.0
649311.5854989826 7536306.554643233 16.850500106811523 0.0 6.732603559251647 0.0
649331.5796021215 7536306.554643233 17.627399444580078 0.0 6.732603559251647 0.0
649351.5737052604 7536306.554643233 18.312900543212887 0.0 6.732603559251647 0.0
649371.5678083993 7536306.554643233 18.87779998779297 0.0 6.732603559251647 0.0
649391.5619115384 7536306.554643233 19.2810001373291 0.0 6.732603559251647 0.0
649411.5560146773 7536306.554643233 19.500200271606445 0.0 6.732603559251647 0.0
649431.5501178162 7536306.554643233 19.56410026550293 0.0 6.732603559251647 0.0
649451.5442209552 7536306.554643233 19.49139976501465 0.0 6.732603559251647 0.0
649471.538324094 7536306.554643233 19.306400299072266 0.0 6.732603559251647 0.0
649491.5324272331 7536306.554643233 19.06060028076172 0.0 6.732603559251647 0.0
649511.526530372 7536306.554643233 18.87630081176757 0.0 6.732603559251647 0.0
649531.520633511 7536306.554643233 18.710100173950195 0.0 6.732603559251647 0.0
649551.5147366499 7536306.554643233 18.502700805664062 0.0 6.732603559251647 0.0
649571.5088397888 7536306.554643233 18.25060081481933 0.0 6.732603559251647 0.0
649591.5029429278 7536306.554643233 17.965200424194336 0.0 6.732603559251647 0.0
649611.4970460668 7536306.554643233 17.662399291992188 0.0 6.732603559251647 0.0
649631.4911492057 7536306.554643233 17.357900619506836 0.0 6.732603559251647 0.0
649651.4852523446 7536306.554643233 17.067899703979492 0.0 6.732603559251647 0.0
649671.4793554837 7536306.554643233 16.811500549316406 0.0 6.732603559251647 0.0
649691.4734586226 7536306.554643233 16.615400314331055 0.0 6.732603559251647 0.0
649711.4675617615 7536306.554643233 16.497499465942383 0.0 6.732603559251647 0.0
649731.4616649004 7536306.554643233 16.433700561523438 0.0 6.732603559251647 0.0
649751.4557680395 7536306.554643233 16.39780044555664 0.0 6.732603559251647 0.0
649771.4498711784 7536306.554643233 16.369600296020508 0.0 6.732603559251647 0.0
649791.4439743173 7536306.554643233 16.332700729370117 0.0 6.732603559251647 0.0
649811.4380774562 7536306.554643233 16.277299880981445 0.0 6.732603559251647 0.0
649831.4321805952 7536306.554643233 16.20490074157715 0.0 6.732603559251647 0.0
649851.4262837342 7536306.554643233 16.12470054626465 0.0 6.732603559251647 0.0
649871.4203868731 7536306.554643233 16.04960060119629 0.0 6.732603559251647 0.0
649891.414490012 7536306.554643233 15.991700172424316 0.0 6.732603559251647 0.0
649911.408593151 7536306.554643233 15.956000328063965 0.0 6.732603559251647 0.0
649931.4026962899 7536306.554643233 15.93879985809326 0.0 6.732603559251647 0.0
649951.3967994289 7536306.554643233 15.9330997467041 0.0 6.732603559251647 0.0
649971.3909025678 7536306.554643233 15.932700157165527 0.0 6.732603559251647 0.0
649991.3850057068 7536306.554643233 15.932999610900875 0.0 6.732603559251647 0.0
649291.5913958437 7536286.560540096 16.66699981689453 0.0 6.732603559251647 0.0
649311.5854989826 7536286.560540096 17.494699478149414 0.0 6.732603559251647 0.0
649331.5796021215 7536286.560540096 18.25180053710937 0.0 6.732603559251647 0.0
649351.5737052604 7536286.560540096 18.913299560546875 0.0 6.732603559251647 0.0
649371.5678083993 7536286.560540096 19.450899124145508 0.0 6.732603559251647 0.0
649391.5619115384 7536286.560540096 19.83370018005371 0.0 6.732603559251647 0.0
649411.5560146773 7536286.560540096 20.0487003326416 0.0 6.732603559251647 0.0
649431.5501178162 7536286.560540096 20.11000061035156 0.0 6.732603559251647 0.0
649451.5442209552 7536286.560540096 20.0393009185791 0.0 6.732603559251647 0.0
649471.538324094 7536286.560540096 19.8656005859375 0.0 6.732603559251647 0.0
649491.5324272331 7536286.560540096 19.637699127197266 0.0 6.732603559251647 0.0
649511.526530372 7536286.560540096 19.412500381469727 0.0 6.732603559251647 0.0
649531.520633511 7536286.560540096 19.183799743652344 0.0 6.732603559251647 0.0
649551.5147366499 7536286.560540096 18.921300888061523 0.0 6.732603559251647 0.0
649571.5088397888 7536286.560540096 18.6205997467041 0.0 6.732603559251647 0.0
649591.5029429278 7536286.560540096 18.292999267578125 0.0 6.732603559251647 0.0
649611.4970460668 7536286.560540096 17.953699111938477 0.0 6.732603559251647 0.0
649631.4911492057 7536286.560540096 17.618200302124023 0.0 6.732603559251647 0.0
649651.4852523446 7536286.560540096 17.302200317382812 0.0 6.732603559251647 0.0
649671.4793554837 7536286.560540096 17.023300170898438 0.0 6.732603559251647 0.0
649691.4734586226 7536286.560540096 16.79990005493164 0.0 6.732603559251647 0.0
649711.4675617615 7536286.560540096 16.640499114990234 0.0 6.732603559251647 0.0
649731.4616649004 7536286.560540096 16.533899307250977 0.0 6.732603559251647 0.0
649751.4557680395 7536286.560540096 16.460500717163082 0.0 6.732603559251647 0.0
649771.4498711784 7536286.560540096 16.400699615478516 0.0 6.732603559251647 0.0
649791.4439743173 7536286.560540096 16.337099075317383 0.0 6.732603559251647 0.0
649811.4380774562 7536286.560540096 16.259000778198242 0.0 6.732603559251647 0.0
649831.4321805952 7536286.560540096 16.16819953918457 0.0 6.732603559251647 0.0
649851.4262837342 7536286.560540096 16.075599670410156 0.0 6.732603559251647 0.0
649871.4203868731 7536286.560540096 15.993599891662596 0.0 6.732603559251647 0.0
649891.414490012 7536286.560540096 15.93220043182373 0.0 6.732603559251647 0.0
649911.408593151 7536286.560540096 15.895999908447264 0.0 6.732603559251647 0.0
649931.4026962899 7536286.560540096 15.882800102233888 0.0 6.732603559251647 0.0
649951.3967994289 7536286.560540096 15.886099815368652 0.0 6.732603559251647 0.0
649971.3909025678 7536286.560540096 15.898599624633787 0.0 6.732603559251647 0.0
649991.3850057068 7536286.560540096 15.91390037536621 0.0 6.732603559251647 0.0
649291.5913958437 7536266.566436957 17.22610092163086 0.0 6.732603559251647 0.0
649311.5854989826 7536266.566436957 18.0403995513916 0.0 6.732603559251647 0.0
649331.5796021215 7536266.566436957 18.78070068359375 0.0 6.732603559251647 0.0
649351.5737052604 7536266.566436957 19.4237003326416 0.0 6.732603559251647 0.0
649371.5678083993 7536266.566436957 19.944799423217773 0.0 6.732603559251647 0.0
649391.5619115384 7536266.566436957 20.32150077819824 0.0 6.732603559251647 0.0
649411.5560146773 7536266.566436957 20.5447006225586 0.0 6.732603559251647 0.0
649431.5501178162 7536266.566436957 20.624099731445312 0.0 6.732603559251647 0.0
649451.5442209552 7536266.566436957 20.580900192260746 0.0 6.732603559251647 0.0
649471.538324094 7536266.566436957 20.441600799560543 0.0 6.732603559251647 0.0
649491.5324272331 7536266.566436957 20.23469924926757 0.0 6.732603559251647 0.0
649511.526530372 7536266.566436957 19.981800079345703 0.0 6.732603559251647 0.0
649531.520633511 7536266.566436957 19.68829917907715 0.0 6.732603559251647 0.0
649551.5147366499 7536266.566436957 19.35610008239746 0.0 6.732603559251647 0.0
649571.5088397888 7536266.566436957 18.99399948120117 0.0 6.732603559251647 0.0
649591.5029429278 7536266.566436957 18.615800857543945 0.0 6.732603559251647 0.0
649611.4970460668 7536266.566436957 18.2362003326416 0.0 6.732603559251647 0.0
649631.4911492057 7536266.566436957 17.86829948425293 0.0 6.732603559251647 0.0
649651.4852523446 7536266.566436957 17.52470016479492 0.0 6.732603559251647 0.0
649671.4793554837 7536266.566436957 17.218799591064453 0.0 6.732603559251647 0.0
649691.4734586226 7536266.566436957 16.963300704956055 0.0 6.732603559251647 0.0
649711.4675617615 7536266.566436957 16.763900756835938 0.0 6.732603559251647 0.0
649731.4616649004 7536266.566436957 16.615400314331055 0.0 6.732603559251647 0.0
649751.4557680395 7536266.566436957 16.5039005279541 0.0 6.732603559251647 0.0
649771.4498711784 7536266.566436957 16.412599563598633 0.0 6.732603559251647 0.0
649791.4439743173 7536266.566436957 16.322799682617188 0.0 6.732603559251647 0.0
649811.4380774562 7536266.566436957 16.218799591064453 0.0 6.732603559251647 0.0
649831.4321805952 7536266.566436957 16.105100631713867 0.0 6.732603559251647 0.0
649851.4262837342 7536266.566436957 15.996600151062012 0.0 6.732603559251647 0.0
649871.4203868731 7536266.566436957 15.905400276184082 0.0 6.732603559251647 0.0
649891.414490012 7536266.566436957 15.839900016784668 0.0 6.732603559251647 0.0
649911.408593151 7536266.566436957 15.80490016937256 0.0 6.732603559251647 0.0
649931.4026962899 7536266.566436957 15.798100471496582 0.0 6.732603559251647 0.0
649951.3967994289 7536266.566436957 15.812000274658203 0.0 6.732603559251647 0.0
649971.3909025678 7536266.566436957 15.838199615478516 0.0 6.732603559251647 0.0
649991.3850057068 7536266.566436957 15.869000434875488 0.0 6.732603559251647 0.0
649291.5913958437 7536246.572333817 17.68510055541992 0.0 6.732603559251647 0.0
649311.5854989826 7536246.572333817 18.488800048828125 0.0 6.732603559251647 0.0
649331.5796021215 7536246.572333817 19.21660041809082 0.0 6.732603559251647 0.0
649351.5737052604 7536246.572333817 19.848300933837887 0.0 6.732603559251647 0.0
649371.5678083993 7536246.572333817 20.363500595092773 0.0 6.732603559251647 0.0
649391.5619115384 7536246.572333817 20.74360084533692 0.0 6.732603559251647 0.0
649411.5560146773 7536246.572333817 20.97960090637207 0.0 6.732603559251647 0.0
649431.5501178162 7536246.572333817 21.081699371337887 0.0 6.732603559251647 0.0
649451.5442209552 7536246.572333817 21.0718994140625 0.0 6.732603559251647 0.0
649471.538324094 7536246.572333817 20.97100067138672 0.0 6.732603559251647 0.0
649491.5324272331 7536246.572333817 20.78840065002441 0.0 6.732603559251647 0.0
649511.526530372 7536246.572333817 20.51759910583496 0.0 6.732603559251647 0.0
649531.520633511 7536246.572333817 20.16580009460449 0.0 6.732603559251647 0.0
649551.5147366499 7536246.572333817 19.76519966125488 0.0 6.732603559251647 0.0
649571.5088397888 7536246.572333817 19.341699600219727 0.0 6.732603559251647 0.0
649591.5029429278 7536246.572333817 18.91309928894043 0.0 6.732603559251647 0.0
649611.4970460668 7536246.572333817 18.494400024414062 0.0 6.732603559251647 0.0
649631.4911492057 7536246.572333817 18.095199584960938 0.0 6.732603559251647 0.0
649651.4852523446 7536246.572333817 17.722700119018555 0.0 6.732603559251647 0.0
649671.4793554837 7536246.572333817 17.38629913330078 0.0 6.732603559251647 0.0
649691.4734586226 7536246.572333817 17.095300674438477 0.0 6.732603559251647 0.0
649711.4675617615 7536246.572333817 16.856000900268555 0.0 6.732603559251647 0.0
649731.4616649004 7536246.572333817 16.666200637817383 0.0 6.732603559251647 0.0
649751.4557680395 7536246.572333817 16.515499114990234 0.0 6.732603559251647 0.0
649771.4498711784 7536246.572333817 16.39139938354492 0.0 6.732603559251647 0.0
649791.4439743173 7536246.572333817 16.277000427246094 0.0 6.732603559251647 0.0
649811.4380774562 7536246.572333817 16.144100189208984 0.0 6.732603559251647 0.0
649831.4321805952 7536246.572333817 16.00589942932129 0.0 6.732603559251647 0.0
649851.4262837342 7536246.572333817 15.88259983062744 0.0 6.732603559251647 0.0
649871.4203868731 7536246.572333817 15.783699989318848 0.0 6.732603559251647 0.0
649891.414490012 7536246.572333817 15.71560001373291 0.0 6.732603559251647 0.0
649911.408593151 7536246.572333817 15.684200286865234 0.0 6.732603559251647 0.0
649931.4026962899 7536246.572333817 15.68690013885498 0.0 6.732603559251647 0.0
649951.3967994289 7536246.572333817 15.713500022888184 0.0 6.732603559251647 0.0
649971.3909025678 7536246.572333817 15.754899978637695 0.0 6.732603559251647 0.0
649991.3850057068 7536246.572333817 15.80239963531494 0.0 6.732603559251647 0.0
649291.5913958437 7536226.578230678 18.04400062561035 0.0 6.732603559251647 0.0
649311.5854989826 7536226.578230678 18.839799880981445 0.0 6.732603559251647 0.0
649331.5796021215 7536226.578230678 19.558799743652344 0.0 6.732603559251647 0.0
649351.5737052604 7536226.578230678 20.18359947204589 0.0 6.732603559251647 0.0
649371.5678083993 7536226.578230678 20.69820022583008 0.0 6.732603559251647 0.0
649391.5619115384 7536226.578230678 21.08650016784668 0.0 6.732603559251647 0.0
649411.5560146773 7536226.578230678 21.33270072937012 0.0 6.732603559251647 0.0
649431.5501178162 7536226.578230678 21.451499938964844 0.0 6.732603559251647 0.0
649451.5442209552 7536226.578230678 21.46789932250977 0.0 6.732603559251647 0.0
649471.538324094 7536226.578230678 21.39830017089844 0.0 6.732603559251647 0.0
649491.5324272331 7536226.578230678 21.24399948120117 0.0 6.732603559251647 0.0
649511.526530372 7536226.578230678 20.963699340820312 0.0 6.732603559251647 0.0
649531.520633511 7536226.578230678 20.55870056152344 0.0 6.732603559251647 0.0
649551.5147366499 7536226.578230678 20.103900909423828 0.0 6.732603559251647 0.0
649571.5088397888 7536226.578230678 19.63330078125 0.0 6.732603559251647 0.0
649591.5029429278 7536226.578230678 19.16449928283692 0.0 6.732603559251647 0.0
649611.4970460668 7536226.578230678 18.714700698852536 0.0 6.732603559251647 0.0
649631.4911492057 7536226.578230678 18.28820037841797 0.0 6.732603559251647 0.0
649651.4852523446 7536226.578230678 17.88800048828125 0.0 6.732603559251647 0.0
649671.4793554837 7536226.578230678 17.52050018310547 0.0 6.732603559251647 0.0
649691.4734586226 7536226.578230678 17.19260025024414 0.0 6.732603559251647 0.0
649711.4675617615 7536226.578230678 16.912700653076172 0.0 6.732603559251647 0.0
649731.4616649004 7536226.578230678 16.680200576782227 0.0 6.732603559251647 0.0
649751.4557680395 7536226.578230678 16.486099243164062 0.0 6.732603559251647 0.0
649771.4498711784 7536226.578230678 16.321199417114254 0.0 6.732603559251647 0.0
649791.4439743173 7536226.578230678 16.170900344848633 0.0 6.732603559251647 0.0
649811.4380774562 7536226.578230678 16.014799118041992 0.0 6.732603559251647 0.0
649831.4321805952 7536226.578230678 15.86240005493164 0.0 6.732603559251647 0.0
649851.4262837342 7536226.578230678 15.731200218200684 0.0 6.732603559251647 0.0
649871.4203868731 7536226.578230678 15.63010025024414 0.0 6.732603559251647 0.0
649891.414490012 7536226.578230678 15.564700126647947 0.0 6.732603559251647 0.0
649911.408593151 7536226.578230678 15.539799690246582 0.0 6.732603559251647 0.0
649931.4026962899 7536226.578230678 15.553000450134276 0.0 6.732603559251647 0.0
649951.3967994289 7536226.578230678 15.593899726867676 0.0 6.732603559251647 0.0
649971.3909025678 7536226.578230678 15.651900291442873 0.0 6.732603559251647 0.0
649991.3850057068 7536226.578230678 15.717399597167969 0.0 6.732603559251647 0.0
649291.5913958437 7536206.584127539 18.302000045776367 0.0 6.732603559251647 0.0
649311.5854989826 7536206.584127539 19.093000411987305 0.0 6.732603559251647 0.0
649331.5796021215 7536206.584127539 19.805400848388672 0.0 6.732603559251647 0.0
649351.5737052604 7536206.584127539 20.423599243164062 0.0 6.732603559251647 0.0
649371.5678083993 7536206.584127539 20.934600830078125 0.0 6.732603559251647 0.0
649391.5619115384 7536206.584127539 21.325899124145508 0.0 6.732603559251647 0.0
649411.5560146773 7536206.584127539 21.577999114990234 0.0 6.732603559251647 0.0
649431.5501178162 7536206.584127539 21.707500457763672 0.0 6.732603559251647 0.0
649451.5442209552 7536206.584127539 21.736400604248047 0.0 6.732603559251647 0.0
649471.538324094 7536206.584127539 21.67560005187988 0.0 6.732603559251647 0.0
649491.5324272331 7536206.584127539 21.522899627685543 0.0 6.732603559251647 0.0
649511.526530372 7536206.584127539 21.23390007019043 0.0 6.732603559251647 0.0
649531.520633511 7536206.584127539 20.810699462890625 0.0 6.732603559251647 0.0
649551.5147366499 7536206.584127539 20.33650016784668 0.0 6.732603559251647 0.0
649571.5088397888 7536206.584127539 19.846399307250977 0.0 6.732603559251647 0.0
649591.5029429278 7536206.584127539 19.35919952392578 0.0 6.732603559251647 0.0
649611.4970460668 7536206.584127539 18.88870048522949 0.0 6.732603559251647 0.0
649631.4911492057 7536206.584127539 18.44029998779297 0.0 6.732603559251647 0.0
649651.4852523446 7536206.584127539 18.01580047607421 0.0 6.732603559251647 0.0
649671.4793554837 7536206.584127539 17.619300842285156 0.0 6.732603559251647 0.0
649691.4734586226 7536206.584127539 17.25699996948242 0.0 6.732603559251647 0.0
649711.4675617615 7536206.584127539 16.93589973449707 0.0 6.732603559251647 0.0
649731.4616649004 7536206.584127539 16.65719985961914 0.0 6.732603559251647 0.0
649751.4557680395 7536206.584127539 16.415700912475582 0.0 6.732603559251647 0.0
649771.4498711784 7536206.584127539 16.204200744628906 0.0 6.732603559251647 0.0
649791.4439743173 7536206.584127539 16.013700485229492 0.0 6.732603559251647 0.0
649811.4380774562 7536206.584127539 15.8371000289917 0.0 6.732603559251647 0.0
649831.4321805952 7536206.584127539 15.678000450134276 0.0 6.732603559251647 0.0
649851.4262837342 7536206.584127539 15.545900344848633 0.0 6.732603559251647 0.0
649871.4203868731 7536206.584127539 15.447699546813965 0.0 6.732603559251647 0.0
649891.414490012 7536206.584127539 15.388999938964844 0.0 6.732603559251647 0.0
649911.408593151 7536206.584127539 15.373499870300291 0.0 6.732603559251647 0.0
649931.4026962899 7536206.584127539 15.398900032043455 0.0 6.732603559251647 0.0
649951.3967994289 7536206.584127539 15.45580005645752 0.0 6.732603559251647 0.0
649971.3909025678 7536206.584127539 15.531999588012695 0.0 6.732603559251647 0.0
649991.3850057068 7536206.584127539 15.616299629211424 0.0 6.732603559251647 0.0
649291.5913958437 7536186.5900244 18.45820045471192 0.0 6.732603559251647 0.0
649311.5854989826 7536186.5900244 19.248300552368164 0.0 6.732603559251647 0.0
649331.5796021215 7536186.5900244 19.95680046081543 0.0 6.732603559251647 0.0
649351.5737052604 7536186.5900244 20.56760025024414 0.0 6.732603559251647 0.0
649371.5678083993 7536186.5900244 21.06859970092773 0.0 6.732603559251647 0.0
649391.5619115384 7536186.5900244 21.45039939880371 0.0 6.732603559251647 0.0
649411.5560146773 7536186.5900244 21.707199096679688 0.0 6.732603559251647 0.0
649431.5501178162 7536186.5900244 21.84499931335449 0.0 6.732603559251647 0.0
649451.5442209552 7536186.5900244 21.87369918823242 0.0 6.732603559251647 0.0
649471.538324094 7536186.5900244 21.797700881958008 0.0 6.732603559251647 0.0
649491.5324272331 7536186.5900244 21.61420059204101 0.0 6.732603559251647 0.0
649511.526530372 7536186.5900244 21.3129997253418 0.0 6.732603559251647 0.0
649531.520633511 7536186.5900244 20.910600662231445 0.0 6.732603559251647 0.0
649551.5147366499 7536186.5900244 20.45249938964844 0.0 6.732603559251647 0.0
649571.5088397888 7536186.5900244 19.97100067138672 0.0 6.732603559251647 0.0
649591.5029429278 7536186.5900244 19.48500061035156 0.0 6.732603559251647 0.0
649611.4970460668 7536186.5900244 19.007699966430664 0.0 6.732603559251647 0.0
649631.4911492057 7536186.5900244 18.54640007019043 0.0 6.732603559251647 0.0
649651.4852523446 7536186.5900244 18.1033992767334 0.0 6.732603559251647 0.0
649671.4793554837 7536186.5900244 17.681299209594727 0.0 6.732603559251647 0.0
649691.4734586226 7536186.5900244 17.285900115966797 0.0 6.732603559251647 0.0
649711.4675617615 7536186.5900244 16.9242000579834 0.0 6.732603559251647 0.0
649731.4616649004 7536186.5900244 16.59980010986328 0.0 6.732603559251647 0.0
649751.4557680395 7536186.5900244 16.31100082397461 0.0 6.732603559251647 0.0
649771.4498711784 7536186.5900244 16.05419921875 0.0 6.732603559251647 0.0
649791.4439743173 7536186.5900244 15.826700210571287 0.0 6.732603559251647 0.0
649811.4380774562 7536186.5900244 15.629400253295898 0.0 6.732603559251647 0.0
649831.4321805952 7536186.5900244 15.46500015258789 0.0 6.732603559251647 0.0
649851.4262837342 7536186.5900244 15.33530044555664 0.0 6.732603559251647 0.0
649871.4203868731 7536186.5900244 15.24269962310791 0.0 6.732603559251647 0.0
649891.414490012 7536186.5900244 15.191399574279783 0.0 6.732603559251647 0.0
649911.408593151 7536186.5900244 15.186499595642088 0.0 6.732603559251647 0.0
649931.4026962899 7536186.5900244 15.227100372314451 0.0 6.732603559251647 0.0
649951.3967994289 7536186.5900244 15.302499771118164 0.0 6.732603559251647 0.0
649971.3909025678 7536186.5900244 15.39780044555664 0.0 6.732603559251647 0.0
649991.3850057068 7536186.5900244 15.50059986114502 0.0 6.732603559251647 0.0
649311.5854989826 7536166.595921262 18.510599136352536 0.0 6.732603559251647 0.0
649331.5796021215 7536166.595921262 19.30610084533692 0.0 6.732603559251647 0.0
649351.5737052604 7536166.595921262 20.016599655151367 0.0 6.732603559251647 0.0
649371.5678083993 7536166.595921262 20.62339973449707 0.0 6.732603559251647 0.0
649391.5619115384 7536166.595921262 21.11440086364746 0.0 6.732603559251647 0.0
649411.5560146773 7536166.595921262 21.48649978637696 0.0 6.732603559251647 0.0
649431.5501178162 7536166.595921262 21.743099212646484 0.0 6.732603559251647 0.0
649451.5442209552 7536166.595921262 21.88479995727539 0.0 6.732603559251647 0.0
649471.538324094 7536166.595921262 21.906700134277344 0.0 6.732603559251647 0.0
649491.5324272331 7536166.595921262 21.80610084533692 0.0 6.732603559251647 0.0
649511.526530372 7536166.595921262 21.58989906311035 0.0 6.732603559251647 0.0
649531.520633511 7536166.595921262 21.276599884033203 0.0 6.732603559251647 0.0
649551.5147366499 7536166.595921262 20.89509963989257 0.0 6.732603559251647 0.0
649571.5088397888 7536166.595921262 20.469200134277344 0.0 6.732603559251647 0.0
649591.5029429278 7536166.595921262 20.013500213623047 0.0 6.732603559251647 0.0
649611.4970460668 7536166.595921262 19.54179954528808 0.0 6.732603559251647 0.0
649631.4911492057 7536166.595921262 19.06920051574707 0.0 6.732603559251647 0.0
649651.4852523446 7536166.595921262 18.605300903320312 0.0 6.732603559251647 0.0
649671.4793554837 7536166.595921262 18.15080070495605 0.0 6.732603559251647 0.0
649691.4734586226 7536166.595921262 17.706600189208984 0.0 6.732603559251647 0.0
649711.4675617615 7536166.595921262 17.27910041809082 0.0 6.732603559251647 0.0
649731.4616649004 7536166.595921262 16.87849998474121 0.0 6.732603559251647 0.0
649751.4557680395 7536166.595921262 16.51219940185547 0.0 6.732603559251647 0.0
649771.4498711784 7536166.595921262 16.180299758911133 0.0 6.732603559251647 0.0
649791.4439743173 7536166.595921262 15.8818998336792 0.0 6.732603559251647 0.0
649811.4380774562 7536166.595921262 15.619999885559082 0.0 6.732603559251647 0.0
649831.4321805952 7536166.595921262 15.403599739074709 0.0 6.732603559251647 0.0
649851.4262837342 7536166.595921262 15.236300468444824 0.0 6.732603559251647 0.0
649871.4203868731 7536166.595921262 15.1112003326416 0.0 6.732603559251647 0.0
649891.414490012 7536166.595921262 15.02530002593994 0.0 6.732603559251647 0.0
649911.408593151 7536166.595921262 14.980600357055664 0.0 6.732603559251647 0.0
649931.4026962899 7536166.595921262 14.985099792480469 0.0 6.732603559251647 0.0
649951.3967994289 7536166.595921262 15.043399810791016 0.0 6.732603559251647 0.0
649971.3909025678 7536166.595921262 15.138600349426268 0.0 6.732603559251647 0.0
649991.3850057068 7536166.595921262 15.251999855041504 0.0 6.732603559251647 0.0
650011.3791088457 7536166.595921262 15.370900154113768 0.0 6.732603559251647 0.0
649311.5854989826 7536146.601818123 18.454700469970703 0.0 6.732603559251647 0.0
649331.5796021215 7536146.601818123 19.265399932861328 0.0 6.732603559251647 0.0
649351.5737052604 7536146.601818123 19.98909950256348 0.0 6.732603559251647 0.0
649371.5678083993 7536146.601818123 20.60260009765625 0.0 6.732603559251647 0.0
649391.5619115384 7536146.601818123 21.0900993347168 0.0 6.732603559251647 0.0
649411.5560146773 7536146.601818123 21.453399658203125 0.0 6.732603559251647 0.0
649431.5501178162 7536146.601818123 21.71069908142089 0.0 6.732603559251647 0.0
649451.5442209552 7536146.601818123 21.85969924926757 0.0 6.732603559251647 0.0
649471.538324094 7536146.601818123 21.87459945678711 0.0 6.732603559251647 0.0
649491.5324272331 7536146.601818123 21.746999740600582 0.0 6.732603559251647 0.0
649511.526530372 7536146.601818123 21.49430084228516 0.0 6.732603559251647 0.0
649531.520633511 7536146.601818123 21.16200065612793 0.0 6.732603559251647 0.0
649551.5147366499 7536146.601818123 20.80120086669921 0.0 6.732603559251647 0.0
649571.5088397888 7536146.601818123 20.41469955444336 0.0 6.732603559251647 0.0
649591.5029429278 7536146.601818123 19.99250030517578 0.0 6.732603559251647 0.0
649611.4970460668 7536146.601818123 19.540599822998047 0.0 6.732603559251647 0.0
649631.4911492057 7536146.601818123 19.078599929809567 0.0 6.732603559251647 0.0
649651.4852523446 7536146.601818123 18.62109947204589 0.0 6.732603559251647 0.0
649671.4793554837 7536146.601818123 18.1613998413086 0.0 6.732603559251647 0.0
649691.4734586226 7536146.601818123 17.698200225830078 0.0 6.732603559251647 0.0
649711.4675617615 7536146.601818123 17.23979949951172 0.0 6.732603559251647 0.0
649731.4616649004 7536146.601818123 16.802200317382812 0.0 6.732603559251647 0.0
649751.4557680395 7536146.601818123 16.39970016479492 0.0 6.732603559251647 0.0
649771.4498711784 7536146.601818123 16.03059959411621 0.0 6.732603559251647 0.0
649791.4439743173 7536146.601818123 15.696599960327148 0.0 6.732603559251647 0.0
649811.4380774562 7536146.601818123 15.404500007629396 0.0 6.732603559251647 0.0
649831.4321805952 7536146.601818123 15.171299934387209 0.0 6.732603559251647 0.0
649851.4262837342 7536146.601818123 15.003999710083008 0.0 6.732603559251647 0.0
649871.4203868731 7536146.601818123 14.885299682617188 0.0 6.732603559251647 0.0
649891.414490012 7536146.601818123 14.808400154113768 0.0 6.732603559251647 0.0
649911.408593151 7536146.601818123 14.771499633789062 0.0 6.732603559251647 0.0
649931.4026962899 7536146.601818123 14.78219985961914 0.0 6.732603559251647 0.0
649951.3967994289 7536146.601818123 14.859100341796877 0.0 6.732603559251647 0.0
649971.3909025678 7536146.601818123 14.970199584960936 0.0 6.732603559251647 0.0
649991.3850057068 7536146.601818123 15.096099853515623 0.0 6.732603559251647 0.0
650011.3791088457 7536146.601818123 15.22599983215332 0.0 6.732603559251647 0.0
649311.5854989826 7536126.607714983 18.280599594116207 0.0 6.732603559251647 0.0
649331.5796021215 7536126.607714983 19.118900299072266 0.0 6.732603559251647 0.0
649351.5737052604 7536126.607714983 19.87360000610352 0.0 6.732603559251647 0.0
649371.5678083993 7536126.607714983 20.51449966430664 0.0 6.732603559251647 0.0
649391.5619115384 7536126.607714983 21.016599655151367 0.0 6.732603559251647 0.0
649411.5560146773 7536126.607714983 21.3759994506836 0.0 6.732603559251647 0.0
649431.5501178162 7536126.607714983 21.63949966430664 0.0 6.732603559251647 0.0
649451.5442209552 7536126.607714983 21.805400848388672 0.0 6.732603559251647 0.0
649471.538324094 7536126.607714983 21.812299728393555 0.0 6.732603559251647 0.0
649491.5324272331 7536126.607714983 21.655500411987305 0.0 6.732603559251647 0.0
649511.526530372 7536126.607714983 21.364000320434567 0.0 6.732603559251647 0.0
649531.520633511 7536126.607714983 20.99930000305176 0.0 6.732603559251647 0.0
649551.5147366499 7536126.607714983 20.663600921630856 0.0 6.732603559251647 0.0
649571.5088397888 7536126.607714983 20.315999984741207 0.0 6.732603559251647 0.0
649591.5029429278 7536126.607714983 19.92709922790528 0.0 6.732603559251647 0.0
649611.4970460668 7536126.607714983 19.49760055541992 0.0 6.732603559251647 0.0
649631.4911492057 7536126.607714983 19.047700881958008 0.0 6.732603559251647 0.0
649651.4852523446 7536126.607714983 18.60199928283692 0.0 6.732603559251647 0.0
649671.4793554837 7536126.607714983 18.13789939880371 0.0 6.732603559251647 0.0
649691.4734586226 7536126.607714983 17.65719985961914 0.0 6.732603559251647 0.0
649711.4675617615 7536126.607714983 17.172100067138672 0.0 6.732603559251647 0.0
649731.4616649004 7536126.607714983 16.702199935913082 0.0 6.732603559251647 0.0
649751.4557680395 7536126.607714983 16.266700744628906 0.0 6.732603559251647 0.0
649771.4498711784 7536126.607714983 15.86489963531494 0.0 6.732603559251647 0.0
649791.4439743173 7536126.607714983 15.502300262451172 0.0 6.732603559251647 0.0
649811.4380774562 7536126.607714983 15.190400123596191 0.0 6.732603559251647 0.0
649831.4321805952 7536126.607714983 14.946100234985352 0.0 6.732603559251647 0.0
649851.4262837342 7536126.607714983 14.7746000289917 0.0 6.732603559251647 0.0
649871.4203868731 7536126.607714983 14.663000106811523 0.0 6.732603559251647 0.0
649891.414490012 7536126.607714983 14.599499702453612 0.0 6.732603559251647 0.0
649911.408593151 7536126.607714983 14.578700065612791 0.0 6.732603559251647 0.0
649931.4026962899 7536126.607714983 14.605199813842772 0.0 6.732603559251647 0.0
649951.3967994289 7536126.607714983 14.685099601745604 0.0 6.732603559251647 0.0
649971.3909025678 7536126.607714983 14.798800468444824 0.0 6.732603559251647 0.0
649991.3850057068 7536126.607714983 14.927800178527832 0.0 6.732603559251647 0.0
650011.3791088457 7536126.607714983 15.061100006103516 0.0 6.732603559251647 0.0
649311.5854989826 7536106.613611844 17.970300674438477 0.0 6.732603559251647 0.0
649331.5796021215 7536106.613611844 18.848300933837887 0.0 6.732603559251647 0.0
649351.5737052604 7536106.613611844 19.655000686645508 0.0 6.732603559251647 0.0
649371.5678083993 7536106.613611844 20.354700088500977 0.0 6.732603559251647 0.0
649391.5619115384 7536106.613611844 20.911699295043945 0.0 6.732603559251647 0.0
649411.5560146773 7536106.613611844 21.307100296020508 0.0 6.732603559251647 0.0
649431.5501178162 7536106.613611844 21.58720016479492 0.0 6.732603559251647 0.0
649451.5442209552 7536106.613611844 21.74930000305176 0.0 6.732603559251647 0.0
649471.538324094 7536106.613611844 21.728200912475582 0.0 6.732603559251647 0.0
649491.5324272331 7536106.613611844 21.53650093078613 0.0 6.732603559251647 0.0
649511.526530372 7536106.613611844 21.220399856567383 0.0 6.732603559251647 0.0
649531.520633511 7536106.613611844 20.851900100708008 0.0 6.732603559251647 0.0
649551.5147366499 7536106.613611844 20.511699676513672 0.0 6.732603559251647 0.0
649571.5088397888 7536106.613611844 20.177499771118164 0.0 6.732603559251647 0.0
649591.5029429278 7536106.613611844 19.815900802612305 0.0 6.732603559251647 0.0
649611.4970460668 7536106.613611844 19.418199539184567 0.0 6.732603559251647 0.0
649631.4911492057 7536106.613611844 18.99230003356933 0.0 6.732603559251647 0.0
649651.4852523446 7536106.613611844 18.546199798583984 0.0 6.732603559251647 0.0
649671.4793554837 7536106.613611844 18.072200775146484 0.0 6.732603559251647 0.0
649691.4734586226 7536106.613611844 17.574199676513672 0.0 6.732603559251647 0.0
649711.4675617615 7536106.613611844 17.06760025024414 0.0 6.732603559251647 0.0
649731.4616649004 7536106.613611844 16.573200225830078 0.0 6.732603559251647 0.0
649751.4557680395 7536106.613611844 16.10740089416504 0.0 6.732603559251647 0.0
649771.4498711784 7536106.613611844 15.67739963531494 0.0 6.732603559251647 0.0
649791.4439743173 7536106.613611844 15.291199684143066 0.0 6.732603559251647 0.0
649811.4380774562 7536106.613611844 14.96339988708496 0.0 6.732603559251647 0.0
649831.4321805952 7536106.613611844 14.71090030670166 0.0 6.732603559251647 0.0
649851.4262837342 7536106.613611844 14.539999961853027 0.0 6.732603559251647 0.0
649871.4203868731 7536106.613611844 14.439700126647947 0.0 6.732603559251647 0.0
649891.414490012 7536106.613611844 14.393500328063965 0.0 6.732603559251647 0.0
649911.408593151 7536106.613611844 14.390899658203123 0.0 6.732603559251647 0.0
649931.4026962899 7536106.613611844 14.42940044403076 0.0 6.732603559251647 0.0
649951.3967994289 7536106.613611844 14.50749969482422 0.0 6.732603559251647 0.0
649971.3909025678 7536106.613611844 14.614500045776367 0.0 6.732603559251647 0.0
649991.3850057068 7536106.613611844 14.737500190734863 0.0 6.732603559251647 0.0
650011.3791088457 7536106.613611844 14.86680030822754 0.0 6.732603559251647 0.0
649311.5854989826 7536086.619508706 17.496599197387695 0.0 6.732603559251647 0.0
649331.5796021215 7536086.619508706 18.420099258422848 0.0 6.732603559251647 0.0
649351.5737052604 7536086.619508706 19.295099258422848 0.0 6.732603559251647 0.0
649371.5678083993 7536086.619508706 20.083799362182617 0.0 6.732603559251647 0.0
649391.5619115384 7536086.619508706 20.741600036621094 0.0 6.732603559251647 0.0
649411.5560146773 7536086.619508706 21.231000900268555 0.0 6.732603559251647 0.0
649431.5501178162 7536086.619508706 21.539899826049805 0.0 6.732603559251647 0.0
649451.5442209552 7536086.619508706 21.656400680541992 0.0 6.732603559251647 0.0
649471.538324094 7536086.619508706 21.575000762939453 0.0 6.732603559251647 0.0
649491.5324272331 7536086.619508706 21.33440017700196 0.0 6.732603559251647 0.0
649511.526530372 7536086.619508706 20.99690055847168 0.0 6.732603559251647 0.0
649531.520633511 7536086.619508706 20.62989997863769 0.0 6.732603559251647 0.0
649551.5147366499 7536086.619508706 20.281299591064453 0.0 6.732603559251647 0.0
649571.5088397888 7536086.619508706 19.951400756835938 0.0 6.732603559251647 0.0
649591.5029429278 7536086.619508706 19.616800308227536 0.0 6.732603559251647 0.0
649611.4970460668 7536086.619508706 19.257400512695312 0.0 6.732603559251647 0.0
649631.4911492057 7536086.619508706 18.860700607299805 0.0 6.732603559251647 0.0
649651.4852523446 7536086.619508706 18.420499801635746 0.0 6.732603559251647 0.0
649671.4793554837 7536086.619508706 17.93790054321289 0.0 6.732603559251647 0.0
649691.4734586226 7536086.619508706 17.424400329589844 0.0 6.732603559251647 0.0
649711.4675617615 7536086.619508706 16.900299072265625 0.0 6.732603559251647 0.0
649731.4616649004 7536086.619508706 16.38800048828125 0.0 6.732603559251647 0.0
649751.4557680395 7536086.619508706 15.904000282287596 0.0 6.732603559251647 0.0
649771.4498711784 7536086.619508706 15.456000328063965 0.0 6.732603559251647 0.0
649791.4439743173 7536086.619508706 15.051899909973145 0.0 6.732603559251647 0.0
649811.4380774562 7536086.619508706 14.708499908447264 0.0 6.732603559251647 0.0
649831.4321805952 7536086.619508706 14.449899673461914 0.0 6.732603559251647 0.0
649851.4262837342 7536086.619508706 14.287699699401855 0.0 6.732603559251647 0.0
649871.4203868731 7536086.619508706 14.205900192260742 0.0 6.732603559251647 0.0
649891.414490012 7536086.619508706 14.178600311279297 0.0 6.732603559251647 0.0
649911.408593151 7536086.619508706 14.189200401306152 0.0 6.732603559251647 0.0
649931.4026962899 7536086.619508706 14.231800079345703 0.0 6.732603559251647 0.0
649951.3967994289 7536086.619508706 14.303799629211424 0.0 6.732603559251647 0.0
649971.3909025678 7536086.619508706 14.399200439453123 0.0 6.732603559251647 0.0
649991.3850057068 7536086.619508706 14.509699821472168 0.0 6.732603559251647 0.0
650011.3791088457 7536086.619508706 14.62849998474121 0.0 6.732603559251647 0.0
649311.5854989826 7536066.625405567 16.82509994506836 0.0 6.732603559251647 0.0
649331.5796021215 7536066.625405567 17.786399841308594 0.0 6.732603559251647 0.0
649351.5737052604 7536066.625405567 18.730499267578125 0.0 6.732603559251647 0.0
649371.5678083993 7536066.625405567 19.62070083618164 0.0 6.732603559251647 0.0
649391.5619115384 7536066.625405567 20.402500152587887 0.0 6.732603559251647 0.0
649411.5560146773 7536066.625405567 21.00230026245117 0.0 6.732603559251647 0.0
649431.5501178162 7536066.625405567 21.34670066833496 0.0 6.732603559251647 0.0
649451.5442209552 7536066.625405567 21.410400390625 0.0 6.732603559251647 0.0
649471.538324094 7536066.625405567 21.245100021362305 0.0 6.732603559251647 0.0
649491.5324272331 7536066.625405567 20.93880081176757 0.0 6.732603559251647 0.0
649511.526530372 7536066.625405567 20.5718002319336 0.0 6.732603559251647 0.0
649531.520633511 7536066.625405567 20.201799392700195 0.0 6.732603559251647 0.0
649551.5147366499 7536066.625405567 19.86050033569336 0.0 6.732603559251647 0.0
649571.5088397888 7536066.625405567 19.55190086364746 0.0 6.732603559251647 0.0
649591.5029429278 7536066.625405567 19.25909996032715 0.0 6.732603559251647 0.0
649611.4970460668 7536066.625405567 18.95269966125488 0.0 6.732603559251647 0.0
649631.4911492057 7536066.625405567 18.59900093078613 0.0 6.732603559251647 0.0
649651.4852523446 7536066.625405567 18.17770004272461 0.0 6.732603559251647 0.0
649671.4793554837 7536066.625405567 17.69529914855957 0.0 6.732603559251647 0.0
649691.4734586226 7536066.625405567 17.1737003326416 0.0 6.732603559251647 0.0
649711.4675617615 7536066.625405567 16.639999389648438 0.0 6.732603559251647 0.0
649731.4616649004 7536066.625405567 16.121999740600582 0.0 6.732603559251647 0.0
649751.4557680395 7536066.625405567 15.63759994506836 0.0 6.732603559251647 0.0
649771.4498711784 7536066.625405567 15.18929958343506 0.0 6.732603559251647 0.0
649791.4439743173 7536066.625405567 14.778599739074709 0.0 6.732603559251647 0.0
649811.4380774562 7536066.625405567 14.421400070190428 0.0 6.732603559251647 0.0
649831.4321805952 7536066.625405567 14.156399726867676 0.0 6.732603559251647 0.0
649851.4262837342 7536066.625405567 14.01259994506836 0.0 6.732603559251647 0.0
649871.4203868731 7536066.625405567 13.955900192260742 0.0 6.732603559251647 0.0
649891.414490012 7536066.625405567 13.94449996948242 0.0 6.732603559251647 0.0
649911.408593151 7536066.625405567 13.95930004119873 0.0 6.732603559251647 0.0
649931.4026962899 7536066.625405567 13.995699882507324 0.0 6.732603559251647 0.0
649951.3967994289 7536066.625405567 14.054800033569336 0.0 6.732603559251647 0.0
649971.3909025678 7536066.625405567 14.133000373840332 0.0 6.732603559251647 0.0
649991.3850057068 7536066.625405567 14.225000381469728 0.0 6.732603559251647 0.0
650011.3791088457 7536066.625405567 14.327799797058104 0.0 6.732603559251647 0.0
649311.5854989826 7536046.631302428 15.920900344848633 0.0 6.732603559251647 0.0
649331.5796021215 7536046.631302428 16.893800735473633 0.0 6.732603559251647 0.0
649351.5737052604 7536046.631302428 17.88279914855957 0.0 6.732603559251647 0.0
649371.5678083993 7536046.631302428 18.85770034790039 0.0 6.732603559251647 0.0
649391.5619115384 7536046.631302428 19.76099967956543 0.0 6.732603559251647 0.0
649411.5560146773 7536046.631302428 20.485200881958008 0.0 6.732603559251647 0.0
649431.5501178162 7536046.631302428 20.87220001220703 0.0 6.732603559251647 0.0
649451.5442209552 7536046.631302428 20.86210060119629 0.0 6.732603559251647 0.0
649471.538324094 7536046.631302428 20.59259986877441 0.0 6.732603559251647 0.0
649491.5324272331 7536046.631302428 20.216800689697266 0.0 6.732603559251647 0.0
649511.526530372 7536046.631302428 19.826799392700195 0.0 6.732603559251647 0.0
649531.520633511 7536046.631302428 19.467100143432617 0.0 6.732603559251647 0.0
649551.5147366499 7536046.631302428 19.15320014953613 0.0 6.732603559251647 0.0
649571.5088397888 7536046.631302428 18.889299392700195 0.0 6.732603559251647 0.0
649591.5029429278 7536046.631302428 18.662399291992188 0.0 6.732603559251647 0.0
649611.4970460668 7536046.631302428 18.43589973449707 0.0 6.732603559251647 0.0
649631.4911492057 7536046.631302428 18.151100158691406 0.0 6.732603559251647 0.0
649651.4852523446 7536046.631302428 17.764799118041992 0.0 6.732603559251647 0.0
649671.4793554837 7536046.631302428 17.29840087890625 0.0 6.732603559251647 0.0
649691.4734586226 7536046.631302428 16.784900665283203 0.0 6.732603559251647 0.0
649711.4675617615 7536046.631302428 16.255699157714844 0.0 6.732603559251647 0.0
649731.4616649004 7536046.631302428 15.749099731445312 0.0 6.732603559251647 0.0
