649531.520633511012 7536286.56054009497 19.1837997436523438
649551.51473664993 7536286.56054009497 18.9213008880615234
649571.508839788847 7536286.56054009497 18.6205997467041016
649591.502942927764 7536286.56054009497 18.292999267578125
649611.497046066797 7536286.56054009497 17.9536991119384766
649631.491149205714 7536286.56054009497 17.6182003021240234
649651.485252344632 7536286.56054009497 17.3022003173828125
649671.479355483665 7536286.56054009497 17.0233001708984375
649691.473458622582 7536286.56054009497 16.7999000549316406
649711.467561761499 7536286.56054009497 16.6404991149902344
649731.461664900417 7536286.56054009497 16.5338993072509766
649751.45576803945 7536286.56054009497 16.4605007171630859
649771.449871178367 7536286.56054009497 16.4006996154785156
649791.443974317284 7536286.56054009497 16.3370990753173828
649811.438077456201 7536286.56054009497 16.2590007781982422
649831.432180595235 7536286.56054009497 16.1681995391845703
649851.426283734152 7536286.56054009497 16.0755996704101562
649871.420386873069 7536286.56054009497 15.9935998916625977
649891.414490011986 7536286.56054009497 15.9322004318237305
649911.40859315102 7536286.56054009497 15.8959999084472656
649931.402696289937 7536286.56054009497 15.8828001022338867
649951.396799428854 7536286.56054009497 15.8860998153686523
649971.390902567771 7536286.56054009497 15.8985996246337891
649991.385005706805 7536286.56054009497 15.9139003753662109
649291.591395843658 7536266.56643695664 17.2261009216308594
649311.585498982575 7536266.56643695664 18.0403995513916016
649331.579602121492 7536266.56643695664 18.78070068359375
649351.573705260409 7536266.56643695664 19.4237003326416016
649371.567808399443 7536266.56643695664 19.9447994232177734
649391.56191153836 7536266.56643695664 20.3215007781982422
649411.556014677277 7536266.56643695664 20.5447006225585938
649431.550117816194 7536266.56643695664 20.6240997314453125
649451.544220955228 7536266.56643695664 20.5809001922607422
649471.538324094145 7536266.56643695664 20.4416007995605469
649491.532427233062 7536266.56643695664 20.2346992492675781
649511.526530371979 7536266.56643695664 19.9818000793457031
649531.520633511012 7536266.56643695664 19.6882991790771484
649551.51473664993 7536266.56643695664 19.3561000823974609
649571.508839788847 7536266.56643695664 18.9939994812011719
649591.502942927764 7536266.56643695664 18.6158008575439453
649611.497046066797 7536266.56643695664 18.2362003326416016
649631.491149205714 7536266.56643695664 17.8682994842529297
649651.485252344632 7536266.56643695664 17.5247001647949219
649671.479355483665 7536266.56643695664 17.2187995910644531
649691.473458622582 7536266.56643695664 16.9633007049560547
649711.467561761499 7536266.56643695664 16.7639007568359375
649731.461664900417 7536266.56643695664 16.6154003143310547
649751.45576803945 7536266.56643695664 16.5039005279541016
649771.449871178367 7536266.56643695664 16.4125995635986328
649791.443974317284 7536266.56643695664 16.3227996826171875
649811.438077456201 7536266.56643695664 16.2187995910644531
649831.432180595235 7536266.56643695664 16.1051006317138672
649851.426283734152 7536266.56643695664 15.9966001510620117
649871.420386873069 7536266.56643695664 15.905400276184082
649891.414490011986 7536266.56643695664 15.839900016784668
649911.40859315102 7536266.56643695664 15.8049001693725586
649931.402696289937 7536266.56643695664 15.798100471496582
649951.396799428854 7536266.56643695664 15.8120002746582031
649971.390902567771 7536266.56643695664 15.8381996154785156
649991.385005706805 7536266.56643695664 15.8690004348754883
649291.591395843658 7536246.57233381737 17.6851005554199219
649311.585498982575 7536246.57233381737 18.488800048828125
649331.579602121492 7536246.57233381737 19.2166004180908203
649351.573705260409 7536246.57233381737 19.8483009338378906
649371.567808399443 7536246.57233381737 20.3635005950927734
649391.56191153836 7536246.57233381737 20.7436008453369141
649411.556014677277 7536246.57233381737 20.9796009063720703
649431.550117816194 7536246.57233381737 21.0816993713378906
649451.544220955228 7536246.57233381737 21.0718994140625
649471.538324094145 7536246.57233381737 20.9710006713867188
649491.532427233062 7536246.57233381737 20.7884006500244141
649511.526530371979 7536246.57233381737 20.5175991058349609
649531.520633511012 7536246.57233381737 20.1658000946044922
649551.51473664993 7536246.57233381737 19.7651996612548828
649571.508839788847 7536246.57233381737 19.3416996002197266
649591.502942927764 7536246.57233381737 18.9130992889404297
649611.497046066797 7536246.57233381737 18.4944000244140625
649631.491149205714 7536246.57233381737 18.0951995849609375
649651.485252344632 7536246.57233381737 17.7227001190185547
649671.479355483665 7536246.57233381737 17.3862991333007812
649691.473458622582 7536246.57233381737 17.0953006744384766
649711.467561761499 7536246.57233381737 16.8560009002685547
649731.461664900417 7536246.57233381737 16.6662006378173828
649751.45576803945 7536246.57233381737 16.5154991149902344
649771.449871178367 7536246.57233381737 16.3913993835449219
649791.443974317284 7536246.57233381737 16.2770004272460938
649811.438077456201 7536246.57233381737 16.1441001892089844
649831.432180595235 7536246.57233381737 16.0058994293212891
649851.426283734152 7536246.57233381737 15.8825998306274414
649871.420386873069 7536246.57233381737 15.7836999893188477
649891.414490011986 7536246.57233381737 15.7156000137329102
649911.40859315102 7536246.57233381737 15.6842002868652344
649931.402696289937 7536246.57233381737 15.6869001388549805
649951.396799428854 7536246.57233381737 15.7135000228881836
649971.390902567771 7536246.57233381737 15.7548999786376953
649991.385005706805 7536246.57233381737 15.8023996353149414
649291.591395843658 7536226.57823067904 18.0440006256103516
649311.585498982575 7536226.57823067904 18.8397998809814453
649331.579602121492 7536226.57823067904 19.5587997436523438
649351.573705260409 7536226.57823067904 20.1835994720458984
649371.567808399443 7536226.57823067904 20.6982002258300781
649391.56191153836 7536226.57823067904 21.0865001678466797
649411.556014677277 7536226.57823067904 21.3327007293701172
649431.550117816194 7536226.57823067904 21.4514999389648438
649451.544220955228 7536226.57823067904 21.4678993225097656
649471.538324094145 7536226.57823067904 21.3983001708984375
649491.532427233062 7536226.57823067904 21.2439994812011719
649511.526530371979 7536226.57823067904 20.9636993408203125
649531.520633511012 7536226.57823067904 20.5587005615234375
649551.51473664993 7536226.57823067904 20.1039009094238281
649571.508839788847 7536226.57823067904 19.63330078125
649591.502942927764 7536226.57823067904 19.1644992828369141
649611.497046066797 7536226.57823067904 18.7147006988525391
649631.491149205714 7536226.57823067904 18.2882003784179688
649651.485252344632 7536226.57823067904 17.88800048828125
649671.479355483665 7536226.57823067904 17.5205001831054688
649691.473458622582 7536226.57823067904 17.1926002502441406
649711.467561761499 7536226.57823067904 16.9127006530761719
649731.461664900417 7536226.57823067904 16.6802005767822266
649751.45576803945 7536226.57823067904 16.4860992431640625
649771.449871178367 7536226.57823067904 16.3211994171142578
649791.443974317284 7536226.57823067904 16.1709003448486328
649811.438077456201 7536226.57823067904 16.0147991180419922
649831.432180595235 7536226.57823067904 15.8624000549316406
649851.426283734152 7536226.57823067904 15.7312002182006836
649871.420386873069 7536226.57823067904 15.6301002502441406
649891.414490011986 7536226.57823067904 15.5647001266479492
649911.40859315102 7536226.57823067904 15.539799690246582
649931.402696289937 7536226.57823067904 15.5530004501342773
649951.396799428854 7536226.57823067904 15.5938997268676758
649971.390902567771 7536226.57823067904 15.6519002914428711
649991.385005706805 7536226.57823067904 15.7173995971679688
649291.591395843658 7536206.58412753977 18.3020000457763672
649311.585498982575 7536206.58412753977 19.0930004119873047
649331.579602121492 7536206.58412753977 19.8054008483886719
649351.573705260409 7536206.58412753977 20.4235992431640625
649371.567808399443 7536206.58412753977 20.934600830078125
649391.56191153836 7536206.58412753977 21.3258991241455078
649411.556014677277 7536206.58412753977 21.5779991149902344
649431.550117816194 7536206.58412753977 21.7075004577636719
649451.544220955228 7536206.58412753977 21.7364006042480469
649471.538324094145 7536206.58412753977 21.6756000518798828
649491.532427233062 7536206.58412753977 21.5228996276855469
649511.526530371979 7536206.58412753977 21.2339000701904297
649531.520633511012 7536206.58412753977 20.810699462890625
649551.51473664993 7536206.58412753977 20.3365001678466797
649571.508839788847 7536206.58412753977 19.8463993072509766
649591.502942927764 7536206.58412753977 19.3591995239257812
649611.497046066797 7536206.58412753977 18.8887004852294922
649631.491149205714 7536206.58412753977 18.4402999877929688
649651.485252344632 7536206.58412753977 18.0158004760742188
649671.479355483665 7536206.58412753977 17.6193008422851562
649691.473458622582 7536206.58412753977 17.2569999694824219
649711.467561761499 7536206.58412753977 16.9358997344970703
649731.461664900417 7536206.58412753977 16.6571998596191406
649751.45576803945 7536206.58412753977 16.4157009124755859
649771.449871178367 7536206.58412753977 16.2042007446289062
649791.443974317284 7536206.58412753977 16.0137004852294922
649811.438077456201 7536206.58412753977 15.8371000289916992
649831.432180595235 7536206.58412753977 15.6780004501342773
649851.426283734152 7536206.58412753977 15.5459003448486328
649871.420386873069 7536206.58412753977 15.4476995468139648
649891.414490011986 7536206.58412753977 15.3889999389648438
649911.40859315102 7536206.58412753977 15.373499870300293
649931.402696289937 7536206.58412753977 15.398900032043457
649951.396799428854 7536206.58412753977 15.4558000564575195
649971.390902567771 7536206.58412753977 15.5319995880126953
649991.385005706805 7536206.58412753977 15.6162996292114258
649291.591395843658 7536186.5900244005 18.4582004547119141
649311.585498982575 7536186.5900244005 19.2483005523681641
649331.579602121492 7536186.5900244005 19.9568004608154297
649351.573705260409 7536186.5900244005 20.5676002502441406
649371.567808399443 7536186.5900244005 21.0685997009277344
649391.56191153836 7536186.5900244005 21.4503993988037109
649411.556014677277 7536186.5900244005 21.7071990966796875
649431.550117816194 7536186.5900244005 21.8449993133544922
649451.544220955228 7536186.5900244005 21.8736991882324219
649471.538324094145 7536186.5900244005 21.7977008819580078
649491.532427233062 7536186.5900244005 21.6142005920410156
649511.526530371979 7536186.5900244005 21.3129997253417969
649531.520633511012 7536186.5900244005 20.9106006622314453
649551.51473664993 7536186.5900244005 20.4524993896484375
649571.508839788847 7536186.5900244005 19.9710006713867188
649591.502942927764 7536186.5900244005 19.4850006103515625
649611.497046066797 7536186.5900244005 19.0076999664306641
649631.491149205714 7536186.5900244005 18.5464000701904297
649651.485252344632 7536186.5900244005 18.1033992767333984
649671.479355483665 7536186.5900244005 17.6812992095947266
649691.473458622582 7536186.5900244005 17.2859001159667969
649711.467561761499 7536186.5900244005 16.9242000579833984
649731.461664900417 7536186.5900244005 16.5998001098632812
649751.45576803945 7536186.5900244005 16.3110008239746094
649771.449871178367 7536186.5900244005 16.05419921875
649791.443974317284 7536186.5900244005 15.8267002105712891
649811.438077456201 7536186.5900244005 15.6294002532958984
649831.432180595235 7536186.5900244005 15.4650001525878906
649851.426283734152 7536186.5900244005 15.3353004455566406
649871.420386873069 7536186.5900244005 15.2426996231079102
649891.414490011986 7536186.5900244005 15.1913995742797852
649911.40859315102 7536186.5900244005 15.1864995956420898
649931.402696289937 7536186.5900244005 15.2271003723144531
649951.396799428854 7536186.5900244005 15.3024997711181641
649971.390902567771 7536186.5900244005 15.3978004455566406
649991.385005706805 7536186.5900244005 15.5005998611450195
649311.585498982575 7536166.59592126217 18.5105991363525391
649331.579602121492 7536166.59592126217 19.3061008453369141
649351.573705260409 7536166.59592126217 20.0165996551513672
649371.567808399443 7536166.59592126217 20.6233997344970703
649391.56191153836 7536166.59592126217 21.1144008636474609
649411.556014677277 7536166.59592126217 21.4864997863769531
649431.550117816194 7536166.59592126217 21.7430992126464844
649451.544220955228 7536166.59592126217 21.8847999572753906
649471.538324094145 7536166.59592126217 21.9067001342773438
649491.532427233062 7536166.59592126217 21.8061008453369141
649511.526530371979 7536166.59592126217 21.5898990631103516
649531.520633511012 7536166.59592126217 21.2765998840332031
649551.51473664993 7536166.59592126217 20.8950996398925781
649571.508839788847 7536166.59592126217 20.4692001342773438
649591.502942927764 7536166.59592126217 20.0135002136230469
649611.497046066797 7536166.59592126217 19.5417995452880859
649631.491149205714 7536166.59592126217 19.0692005157470703
649651.485252344632 7536166.59592126217 18.6053009033203125
649671.479355483665 7536166.59592126217 18.1508007049560547
649691.473458622582 7536166.59592126217 17.7066001892089844
649711.467561761499 7536166.59592126217 17.2791004180908203
649731.461664900417 7536166.59592126217 16.8784999847412109
649751.45576803945 7536166.59592126217 16.5121994018554688
649771.449871178367 7536166.59592126217 16.1802997589111328
649791.443974317284 7536166.59592126217 15.8818998336791992
649811.438077456201 7536166.59592126217 15.619999885559082
649831.432180595235 7536166.59592126217 15.403599739074707
649851.426283734152 7536166.59592126217 15.2363004684448242
649871.420386873069 7536166.59592126217 15.1112003326416016
649891.414490011986 7536166.59592126217 15.0253000259399414
649911.40859315102 7536166.59592126217 14.9806003570556641
649931.402696289937 7536166.59592126217 14.9850997924804688
649951.396799428854 7536166.59592126217 15.0433998107910156
649971.390902567771 7536166.59592126217 15.1386003494262695
649991.385005706805 7536166.59592126217 15.2519998550415039
650011.379108845722 7536166.59592126217 15.3709001541137695
649311.585498982575 7536146.6018181229 18.4547004699707031
649331.579602121492 7536146.6018181229 19.2653999328613281
649351.573705260409 7536146.6018181229 19.9890995025634766
649371.567808399443 7536146.6018181229 20.60260009765625
649391.56191153836 7536146.6018181229 21.0900993347167969
649411.556014677277 7536146.6018181229 21.453399658203125
649431.550117816194 7536146.6018181229 21.7106990814208984
649451.544220955228 7536146.6018181229 21.8596992492675781
649471.538324094145 7536146.6018181229 21.8745994567871094
649491.532427233062 7536146.6018181229 21.7469997406005859
649511.526530371979 7536146.6018181229 21.4943008422851562
649531.520633511012 7536146.6018181229 21.1620006561279297
649551.51473664993 7536146.6018181229 20.8012008666992188
649571.508839788847 7536146.6018181229 20.4146995544433594
649591.502942927764 7536146.6018181229 19.9925003051757812
649611.497046066797 7536146.6018181229 19.5405998229980469
649631.491149205714 7536146.6018181229 19.0785999298095703
649651.485252344632 7536146.6018181229 18.6210994720458984
649671.479355483665 7536146.6018181229 18.1613998413085938
649691.473458622582 7536146.6018181229 17.6982002258300781
649711.467561761499 7536146.6018181229 17.2397994995117188
649731.461664900417 7536146.6018181229 16.8022003173828125
649751.45576803945 7536146.6018181229 16.3997001647949219
649771.449871178367 7536146.6018181229 16.0305995941162109
649791.443974317284 7536146.6018181229 15.6965999603271484
649811.438077456201 7536146.6018181229 15.4045000076293945
649831.432180595235 7536146.6018181229 15.171299934387207
649851.426283734152 7536146.6018181229 15.0039997100830078
649871.420386873069 7536146.6018181229 14.8852996826171875
649891.414490011986 7536146.6018181229 14.8084001541137695
649911.40859315102 7536146.6018181229 14.7714996337890625
649931.402696289937 7536146.6018181229 14.7821998596191406
649951.396799428854 7536146.6018181229 14.859100341796875
649971.390902567771 7536146.6018181229 14.9701995849609375
649991.385005706805 7536146.6018181229 15.096099853515625
650011.379108845722 7536146.6018181229 15.2259998321533203
649311.585498982575 7536126.60771498363 18.2805995941162109
649331.579602121492 7536126.60771498363 19.1189002990722656
649351.573705260409 7536126.60771498363 19.8736000061035156
649371.567808399443 7536126.60771498363 20.5144996643066406
649391.56191153836 7536126.60771498363 21.0165996551513672
649411.556014677277 7536126.60771498363 21.3759994506835938
649431.550117816194 7536126.60771498363 21.6394996643066406
649451.544220955228 7536126.60771498363 21.8054008483886719
649471.538324094145 7536126.60771498363 21.8122997283935547
649491.532427233062 7536126.60771498363 21.6555004119873047
649511.526530371979 7536126.60771498363 21.3640003204345703
649531.520633511012 7536126.60771498363 20.9993000030517578
649551.51473664993 7536126.60771498363 20.6636009216308594
649571.508839788847 7536126.60771498363 20.3159999847412109
649591.502942927764 7536126.60771498363 19.9270992279052734
649611.497046066797 7536126.60771498363 19.4976005554199219
649631.491149205714 7536126.60771498363 19.0477008819580078
649651.485252344632 7536126.60771498363 18.6019992828369141
649671.479355483665 7536126.60771498363 18.1378993988037109
649691.473458622582 7536126.60771498363 17.6571998596191406
649711.467561761499 7536126.60771498363 17.1721000671386719
649731.461664900417 7536126.60771498363 16.7021999359130859
649751.45576803945 7536126.60771498363 16.2667007446289062
649771.449871178367 7536126.60771498363 15.8648996353149414
649791.443974317284 7536126.60771498363 15.5023002624511719
649811.438077456201 7536126.60771498363 15.1904001235961914
649831.432180595235 7536126.60771498363 14.9461002349853516
649851.426283734152 7536126.60771498363 14.7746000289916992
649871.420386873069 7536126.60771498363 14.6630001068115234
649891.414490011986 7536126.60771498363 14.5994997024536133
649911.40859315102 7536126.60771498363 14.578700065612793
649931.402696289937 7536126.60771498363 14.6051998138427734
649951.396799428854 7536126.60771498363 14.6850996017456055
649971.390902567771 7536126.60771498363 14.7988004684448242
649991.385005706805 7536126.60771498363 14.927800178527832
650011.379108845722 7536126.60771498363 15.0611000061035156
649311.585498982575 7536106.6136118453 17.9703006744384766
649331.579602121492 7536106.6136118453 18.8483009338378906
649351.573705260409 7536106.6136118453 19.6550006866455078
649371.567808399443 7536106.6136118453 20.3547000885009766
649391.56191153836 7536106.6136118453 20.9116992950439453
649411.556014677277 7536106.6136118453 21.3071002960205078
649431.550117816194 7536106.6136118453 21.5872001647949219
649451.544220955228 7536106.6136118453 21.7493000030517578
649471.538324094145 7536106.6136118453 21.7282009124755859
649491.532427233062 7536106.6136118453 21.5365009307861328
649511.526530371979 7536106.6136118453 21.2203998565673828
649531.520633511012 7536106.6136118453 20.8519001007080078
649551.51473664993 7536106.6136118453 20.5116996765136719
649571.508839788847 7536106.6136118453 20.1774997711181641
649591.502942927764 7536106.6136118453 19.8159008026123047
649611.497046066797 7536106.6136118453 19.4181995391845703
649631.491149205714 7536106.6136118453 18.9923000335693359
649651.485252344632 7536106.6136118453 18.5461997985839844
649671.479355483665 7536106.6136118453 18.0722007751464844
649691.473458622582 7536106.6136118453 17.5741996765136719
649711.467561761499 7536106.6136118453 17.0676002502441406
649731.461664900417 7536106.6136118453 16.5732002258300781
649751.45576803945 7536106.6136118453 16.1074008941650391
649771.449871178367 7536106.6136118453 15.6773996353149414
649791.443974317284 7536106.6136118453 15.2911996841430664
649811.438077456201 7536106.6136118453 14.9633998870849609
649831.432180595235 7536106.6136118453 14.7109003067016602
649851.426283734152 7536106.6136118453 14.5399999618530273
649871.420386873069 7536106.6136118453 14.4397001266479492
649891.414490011986 7536106.6136118453 14.3935003280639648
649911.40859315102 7536106.6136118453 14.390899658203125
649931.402696289937 7536106.6136118453 14.4294004440307617
649951.396799428854 7536106.6136118453 14.5074996948242188
649971.390902567771 7536106.6136118453 14.6145000457763672
649991.385005706805 7536106.6136118453 14.7375001907348633
650011.379108845722 7536106.6136118453 14.8668003082275391
649311.585498982575 7536086.61950870603 17.4965991973876953
649331.579602121492 7536086.61950870603 18.4200992584228516
649351.573705260409 7536086.61950870603 19.2950992584228516
649371.567808399443 7536086.61950870603 20.0837993621826172
649391.56191153836 7536086.61950870603 20.7416000366210938
649411.556014677277 7536086.61950870603 21.2310009002685547
649431.550117816194 7536086.61950870603 21.5398998260498047
649451.544220955228 7536086.61950870603 21.6564006805419922
649471.538324094145 7536086.61950870603 21.5750007629394531
649491.532427233062 7536086.61950870603 21.3344001770019531
649511.526530371979 7536086.61950870603 20.9969005584716797
649531.520633511012 7536086.61950870603 20.6298999786376953
649551.51473664993 7536086.61950870603 20.2812995910644531
649571.508839788847 7536086.61950870603 19.9514007568359375
649591.502942927764 7536086.61950870603 19.6168003082275391
649611.497046066797 7536086.61950870603 19.2574005126953125
649631.491149205714 7536086.61950870603 18.8607006072998047
649651.485252344632 7536086.61950870603 18.4204998016357422
649671.479355483665 7536086.61950870603 17.9379005432128906
649691.473458622582 7536086.61950870603 17.4244003295898438
649711.467561761499 7536086.61950870603 16.900299072265625
649731.461664900417 7536086.61950870603 16.38800048828125
649751.45576803945 7536086.61950870603 15.9040002822875977
649771.449871178367 7536086.61950870603 15.4560003280639648
649791.443974317284 7536086.61950870603 15.0518999099731445
649811.438077456201 7536086.61950870603 14.7084999084472656
649831.432180595235 7536086.61950870603 14.4498996734619141
649851.426283734152 7536086.61950870603 14.2876996994018555
649871.420386873069 7536086.61950870603 14.2059001922607422
649891.414490011986 7536086.61950870603 14.1786003112792969
649911.40859315102 7536086.61950870603 14.1892004013061523
649931.402696289937 7536086.61950870603 14.2318000793457031
649951.396799428854 7536086.61950870603 14.3037996292114258
649971.390902567771 7536086.61950870603 14.399200439453125
649991.385005706805 7536086.61950870603 14.509699821472168
650011.379108845722 7536086.61950870603 14.6284999847412109
649311.585498982575 7536066.62540556677 16.8250999450683594
649331.579602121492 7536066.62540556677 17.7863998413085938
649351.573705260409 7536066.62540556677 18.730499267578125
649371.567808399443 7536066.62540556677 19.6207008361816406
649391.56191153836 7536066.62540556677 20.4025001525878906
649411.556014677277 7536066.62540556677 21.0023002624511719
649431.550117816194 7536066.62540556677 21.3467006683349609
649451.544220955228 7536066.62540556677 21.410400390625
649471.538324094145 7536066.62540556677 21.2451000213623047
649491.532427233062 7536066.62540556677 20.9388008117675781
649511.526530371979 7536066.62540556677 20.5718002319335938
649531.520633511012 7536066.62540556677 20.2017993927001953
649551.51473664993 7536066.62540556677 19.8605003356933594
649571.508839788847 7536066.62540556677 19.5519008636474609
649591.502942927764 7536066.62540556677 19.2590999603271484
649611.497046066797 7536066.62540556677 18.9526996612548828
649631.491149205714 7536066.62540556677 18.5990009307861328
649651.485252344632 7536066.62540556677 18.1777000427246094
649671.479355483665 7536066.62540556677 17.6952991485595703
649691.473458622582 7536066.62540556677 17.1737003326416016
649711.467561761499 7536066.62540556677 16.6399993896484375
649731.461664900417 7536066.62540556677 16.1219997406005859
649751.45576803945 7536066.62540556677 15.6375999450683594
649771.449871178367 7536066.62540556677 15.1892995834350586
649791.443974317284 7536066.62540556677 14.778599739074707
649811.438077456201 7536066.62540556677 14.4214000701904297
649831.432180595235 7536066.62540556677 14.1563997268676758
649851.426283734152 7536066.62540556677 14.0125999450683594
649871.420386873069 7536066.62540556677 13.9559001922607422
649891.414490011986 7536066.62540556677 13.9444999694824219
649911.40859315102 7536066.62540556677 13.9593000411987305
649931.402696289937 7536066.62540556677 13.9956998825073242
649951.396799428854 7536066.62540556677 14.0548000335693359
649971.390902567771 7536066.62540556677 14.133000373840332
649991.385005706805 7536066.62540556677 14.2250003814697266
650011.379108845722 7536066.62540556677 14.3277997970581055
649311.585498982575 7536046.63130242843 15.9209003448486328
649331.579602121492 7536046.63130242843 16.8938007354736328
649351.573705260409 7536046.63130242843 17.8827991485595703
649371.567808399443 7536046.63130242843 18.8577003479003906
649391.56191153836 7536046.63130242843 19.7609996795654297
649411.556014677277 7536046.63130242843 20.4852008819580078
649431.550117816194 7536046.63130242843 20.8722000122070312
649451.544220955228 7536046.63130242843 20.8621006011962891
649471.538324094145 7536046.63130242843 20.5925998687744141
649491.532427233062 7536046.63130242843 20.2168006896972656
649511.526530371979 7536046.63130242843 19.8267993927001953
649531.520633511012 7536046.63130242843 19.4671001434326172
649551.51473664993 7536046.63130242843 19.1532001495361328
649571.508839788847 7536046.63130242843 18.8892993927001953
649591.502942927764 7536046.63130242843 18.6623992919921875
649611.497046066797 7536046.63130242843 18.4358997344970703
649631.491149205714 7536046.63130242843 18.1511001586914062
649651.485252344632 7536046.63130242843 17.7647991180419922
649671.479355483665 7536046.63130242843 17.29840087890625
649691.473458622582 7536046.63130242843 16.7849006652832031
649711.467561761499 7536046.63130242843 16.2556991577148438
649731.461664900417 7536046.63130242843 15.7490997314453125
649751.45576803945 7536046.63130242843 15.2902002334594727
649771.449871178367 7536046.63130242843 14.8676004409790039
649791.443974317284 7536046.63130242843 14.4729995727539062
649811.438077456201 7536046.63130242843 14.1148996353149414
649831.432180595235 7536046.63130242843 13.8393001556396484
649851.426283734152 7536046.63130242843 13.726099967956543
649871.420386873069 7536046.63130242843 13.6892004013061523
649891.414490011986 7536046.63130242843 13.6805000305175781
649911.40859315102 7536046.63130242843 13.6857995986938477
649931.402696289937 7536046.63130242843 13.7032003402709961
649951.396799428854 7536046.63130242843 13.7410001754760742
649971.390902567771 7536046.63130242843 13.7945995330810547
649991.385005706805 7536046.63130242843 13.8608999252319336
650011.379108845722 7536046.63130242843 13.9420003890991211
649311.585498982575 7536026.63719928917 14.7594003677368164
649331.579602121492 7536026.63719928917 15.6978998184204102
649351.573705260409 7536026.63719928917 16.6786994934082031
649371.567808399443 7536026.63719928917 17.6812000274658203
649391.56191153836 7536026.63719928917 18.6581001281738281
649411.556014677277 7536026.63719928917 19.5023002624511719
649431.550117816194 7536026.63719928917 19.9472999572753906
649451.544220955228 7536026.63719928917 19.8211994171142578
649471.538324094145 7536026.63719928917 19.4542007446289062
649491.532427233062 7536026.63719928917 19.0387992858886719
649511.526530371979 7536026.63719928917 18.6583003997802734
649531.520633511012 7536026.63719928917 18.3409996032714844
649551.51473664993 7536026.63719928917 18.0788993835449219
649571.508839788847 7536026.63719928917 17.8843002319335938
649591.502942927764 7536026.63719928917 17.748199462890625
649611.497046066797 7536026.63719928917 17.6273002624511719
649631.491149205714 7536026.63719928917 17.4449005126953125
649651.485252344632 7536026.63719928917 17.11669921875
649671.479355483665 7536026.63719928917 16.6968002319335938
649691.473458622582 7536026.63719928917 16.2206001281738281
649711.467561761499 7536026.63719928917 15.7223997116088867
649731.461664900417 7536026.63719928917 15.2481002807617188
649751.45576803945 7536026.63719928917 14.8427000045776367
649771.449871178367 7536026.63719928917 14.4715995788574219
649791.443974317284 7536026.63719928917 14.1259002685546875
649811.438077456201 7536026.63719928917 13.8120002746582031
649831.432180595235 7536026.63719928917 13.5685997009277344
649851.426283734152 7536026.63719928917 13.4476995468139648
649871.420386873069 7536026.63719928917 13.3922996520996094
649891.414490011986 7536026.63719928917 13.3615999221801758
649911.40859315102 7536026.63719928917 13.3437004089355469
649931.402696289937 7536026.63719928917 13.3353996276855469
649951.396799428854 7536026.63719928917 13.3411998748779297
649971.390902567771 7536026.63719928917 13.3589000701904297
649991.385005706805 7536026.63719928917 13.3907003402709961
650011.379108845722 7536026.63719928917 13.4448003768920898
649311.585498982575 7536006.6430961499 13.3378000259399414
649331.579602121492 7536006.6430961499 14.1822996139526367
649351.573705260409 7536006.6430961499 15.0794000625610352
649371.567808399443 7536006.6430961499 16.0132999420166016
649391.56191153836 7536006.6430961499 16.9419994354248047
649411.556014677277 7536006.6430961499 17.7649993896484375
649431.550117816194 7536006.6430961499 18.2054004669189453
649451.544220955228 7536006.6430961499 18.0557994842529297
649471.538324094145 7536006.6430961499 17.6986007690429688
649491.532427233062 7536006.6430961499 17.3201999664306641
649511.526530371979 7536006.6430961499 16.9976997375488281
649531.520633511012 7536006.6430961499 16.7551002502441406
649551.51473664993 7536006.6430961499 16.5774002075195312
649571.508839788847 7536006.6430961499 16.4825000762939453
649591.502942927764 7536006.6430961499 16.4605007171630859
649611.497046066797 7536006.6430961499 16.4577007293701172
649631.491149205714 7536006.6430961499 16.3854007720947266
649651.485252344632 7536006.6430961499 16.1744003295898438
649671.479355483665 7536006.6430961499 15.8430004119873047
649691.473458622582 7536006.6430961499 15.4402999877929688
649711.467561761499 7536006.6430961499 15.0142002105712891
649731.461664900417 7536006.6430961499 14.6113004684448242
649751.45576803945 7536006.6430961499 14.260899543762207
649771.449871178367 7536006.6430961499 13.9534997940063477
649791.443974317284 7536006.6430961499 13.6820001602172852
649811.438077456201 7536006.6430961499 13.4461002349853516
649831.432180595235 7536006.6430961499 13.2527999877929688
649851.426283734152 7536006.6430961499 13.109100341796875
649871.420386873069 7536006.6430961499 13.0051002502441406
649891.414490011986 7536006.6430961499 12.9322004318237305
649911.40859315102 7536006.6430961499 12.8838996887207031
649931.402696289937 7536006.6430961499 12.8489999771118164
649951.396799428854 7536006.6430961499 12.8178997039794922
649971.390902567771 7536006.6430961499 12.7913999557495117
649991.385005706805 7536006.6430961499 12.7822999954223633
650011.379108845722 7536006.6430961499 12.8064002990722656
649311.585498982575 7535986.64899301156 11.6837997436523438
649331.579602121492 7535986.64899301156 12.3739004135131836
649351.573705260409 7535986.64899301156 13.1092996597290039
649371.567808399443 7535986.64899301156 13.8737001419067383
649391.56191153836 7535986.64899301156 14.6212997436523438
649411.556014677277 7535986.64899301156 15.2487001419067383
649431.550117816194 7535986.64899301156 15.5831003189086914
649451.544220955228 7535986.64899301156 15.5573997497558594
649471.538324094145 7535986.64899301156 15.3357000350952148
649491.532427233062 7535986.64899301156 15.0763998031616211
649511.526530371979 7535986.64899301156 14.8585996627807617
649531.520633511012 7535986.64899301156 14.7119998931884766
649551.51473664993 7535986.64899301156 14.6459999084472656
649571.508839788847 7535986.64899301156 14.6731996536254883
649591.502942927764 7535986.64899301156 14.7856998443603516
649611.497046066797 7535986.64899301156 14.9286003112792969
649631.491149205714 7535986.64899301156 15.0033998489379883
649651.485252344632 7535986.64899301156 14.9252996444702148
649671.479355483665 7535986.64899301156 14.6981000900268555
649691.473458622582 7535986.64899301156 14.389399528503418
649711.467561761499 7535986.64899301156 14.0614995956420898
649731.461664900417 7535986.64899301156 13.7491998672485352
649751.45576803945 7535986.64899301156 13.4693002700805664
649771.449871178367 7535986.64899301156 13.2320003509521484
649791.443974317284 7535986.64899301156 13.0439996719360352
649811.438077456201 7535986.64899301156 12.8955001831054688
649831.432180595235 7535986.64899301156 12.7523002624511719
649851.426283734152 7535986.64899301156 12.5874996185302734
649871.420386873069 7535986.64899301156 12.4264001846313477
649891.414490011986 7535986.64899301156 12.3069000244140625
649911.40859315102 7535986.64899301156 12.2349996566772461
649931.402696289937 7535986.64899301156 12.1836996078491211
649951.396799428854 7535986.64899301156 12.1211996078491211
649971.390902567771 7535986.64899301156 12.0495996475219727
649991.385005706805 7535986.64899301156 11.9990997314453125
650011.379108845722 7535986.64899301156 11.9961996078491211
649311.585498982575 7535966.6548898723 9.85702037811279297
649331.579602121492 7535966.6548898723 10.3449001312255859
649351.573705260409 7535966.6548898723 10.8600997924804688
649371.567808399443 7535966.6548898723 11.3885002136230469
649391.56191153836 7535966.6548898723 11.8930997848510742
649411.556014677277 7535966.6548898723 12.3058996200561523
649431.550117816194 7535966.6548898723 12.5481996536254883
649451.544220955228 7535966.6548898723 12.6012001037597656
649471.538324094145 7535966.6548898723 12.5345001220703125
649491.532427233062 7535966.6548898723 12.4330997467041016
649511.526530371979 7535966.6548898723 12.3505001068115234
649531.520633511012 7535966.6548898723 12.3161001205444336
649551.51473664993 7535966.6548898723 12.3536996841430664
649571.508839788847 7535966.6548898723 12.4897003173828125
649591.502942927764 7535966.6548898723 12.7335996627807617
649611.497046066797 7535966.6548898723 13.0441999435424805
649631.491149205714 7535966.6548898723 13.3008003234863281
649651.485252344632 7535966.6548898723 13.3549003601074219
649671.479355483665 7535966.6548898723 13.2158002853393555
649691.473458622582 7535966.6548898723 13.0047998428344727
649711.467561761499 7535966.6548898723 12.7938003540039062
649731.461664900417 7535966.6548898723 12.5903997421264648
649751.45576803945 7535966.6548898723 12.3879995346069336
649771.449871178367 7535966.6548898723 12.2156000137329102
649791.443974317284 7535966.6548898723 12.104100227355957
649811.438077456201 7535966.6548898723 12.0460996627807617
649831.432180595235 7535966.6548898723 11.9645004272460938
649851.426283734152 7535966.6548898723 11.766200065612793
649871.420386873069 7535966.6548898723 11.5409002304077148
649891.414490011986 7535966.6548898723 11.3859996795654297
649911.40859315102 7535966.6548898723 11.3152999877929688
649931.402696289937 7535966.6548898723 11.2790002822875977
649951.396799428854 7535966.6548898723 11.1992998123168945
649971.390902567771 7535966.6548898723 11.0862998962402344
649991.385005706805 7535966.6548898723 11.0048999786376953
650011.379108845722 7535966.6548898723 10.9890003204345703
649311.585498982575 7535946.66078673303 7.94286012649536133
649331.579602121492 7535946.66078673303 8.20195960998535156
649351.573705260409 7535946.66078673303 8.46798992156982422
649371.567808399443 7535946.66078673303 8.73441982269287109
649391.56191153836 7535946.66078673303 8.98501014709472656
649411.556014677277 7535946.66078673303 9.19585037231445312
649431.550117816194 7535946.66078673303 9.34834003448486328
649451.544220955228 7535946.66078673303 9.44843959808349609
649471.538324094145 7535946.66078673303 9.52073955535888672
649491.532427233062 7535946.66078673303 9.58246040344238281
649511.526530371979 7535946.66078673303 9.63992977142333984
649531.520633511012 7535946.66078673303 9.70514965057373047
649551.51473664993 7535946.66078673303 9.80860996246337891
649571.508839788847 7535946.66078673303 9.998809814453125
649591.502942927764 7535946.66078673303 10.320500373840332
649611.497046066797 7535946.66078673303 10.7719001770019531
649631.491149205714 7535946.66078673303 11.2356996536254883
649651.485252344632 7535946.66078673303 11.4038000106811523
649671.479355483665 7535946.66078673303 11.3271999359130859
649691.473458622582 7535946.66078673303 11.2270002365112305
649711.467561761499 7535946.66078673303 11.1610002517700195
649731.461664900417 7535946.66078673303 11.0937004089355469
649751.45576803945 7535946.66078673303 10.9610996246337891
649771.449871178367 7535946.66078673303 10.8339004516601562
649791.443974317284 7535946.66078673303 10.7691001892089844
649811.438077456201 7535946.66078673303 10.7679004669189453
649831.432180595235 7535946.66078673303 10.75469970703125
649851.426283734152 7535946.66078673303 10.506199836730957
649871.420386873069 7535946.66078673303 10.2425003051757812
649891.414490011986 7535946.66078673303 10.0818996429443359
649911.40859315102 7535946.66078673303 10.0392999649047852
649931.402696289937 7535946.66078673303 10.0618000030517578
649951.396799428854 7535946.66078673303 9.98402023315429688
649971.390902567771 7535946.66078673303 9.85120964050292969
649991.385005706805 7535946.66078673303 9.77353954315185547
650011.379108845722 7535946.66078673303 9.77511978149414062
649311.585498982575 7535926.6666835947 6.04169988632202148
649331.579602121492 7535926.6666835947 6.06957006454467773
649351.573705260409 7535926.6666835947 6.08640003204345703
649371.567808399443 7535926.6666835947 6.09546995162963867
649391.56191153836 7535926.6666835947 6.1028900146484375
649411.556014677277 7535926.6666835947 6.12422990798950195
649431.550117816194 7535926.6666835947 6.18506002426147461
649451.544220955228 7535926.6666835947 6.31810998916625977
649471.538324094145 7535926.6666835947 6.52321004867553711
649491.532427233062 7535926.6666835947 6.74615001678466797
649511.526530371979 7535926.6666835947 6.93072986602783203
649531.520633511012 7535926.6666835947 7.06112003326416016
649551.51473664993 7535926.6666835947 7.16635990142822266
649571.508839788847 7535926.6666835947 7.31799983978271484
649591.502942927764 7535926.6666835947 7.60433006286621094
649611.497046066797 7535926.6666835947 8.06818008422851562
649631.491149205714 7535926.6666835947 8.61878013610839844
649651.485252344632 7535926.6666835947 8.91228008270263672
649671.479355483665 7535926.6666835947 8.98379039764404297
649691.473458622582 7535926.6666835947 9.04489994049072266
649711.467561761499 7535926.6666835947 9.13873958587646484
649731.461664900417 7535926.6666835947 9.21667003631591797
649751.45576803945 7535926.6666835947 9.16158008575439453
649771.449871178367 7535926.6666835947 9.07946014404296875
649791.443974317284 7535926.6666835947 9.02513027191162109
649811.438077456201 7535926.6666835947 8.99522018432617188
649831.432180595235 7535926.6666835947 8.92158031463623047
649851.426283734152 7535926.6666835947 8.72381973266601562
649871.420386873069 7535926.6666835947 8.50642013549804688
649891.414490011986 7535926.6666835947 8.37718963623046875
649911.40859315102 7535926.6666835947 8.358489990234375
649931.402696289937 7535926.6666835947 8.40172004699707031
649951.396799428854 7535926.6666835947 8.38082027435302734
649971.390902567771 7535926.6666835947 8.32225990295410156
649991.385005706805 7535926.6666835947 8.31400012969970703
650011.379108845722 7535926.6666835947 8.37565994262695312
649311.585498982575 7535906.67258045543 4.25754976272583008
649331.579602121492 7535906.67258045543 4.07472991943359375
649351.573705260409 7535906.67258045543 3.8705899715423584
649371.567808399443 7535906.67258045543 3.65349006652832031
649391.56191153836 7535906.67258045543 3.44389009475708008
649411.556014677277 7535906.67258045543 3.29573988914489746
649431.550117816194 7535906.67258045543 3.26240992546081543
649451.544220955228 7535906.67258045543 3.42405009269714355
649471.538324094145 7535906.67258045543 3.77681994438171387
649491.532427233062 7535906.67258045543 4.16122007369995117
649511.526530371979 7535906.67258045543 4.44802999496459961
649531.520633511012 7535906.67258045543 4.60224008560180664
649551.51473664993 7535906.67258045543 4.6391901969909668
649571.508839788847 7535906.67258045543 4.64671993255615234
649591.502942927764 7535906.67258045543 4.76942014694213867
649611.497046066797 7535906.67258045543 5.09790992736816406
649631.491149205714 7535906.67258045543 5.57992982864379883
649651.485252344632 7535906.67258045543 6.02175998687744141
649671.479355483665 7535906.67258045543 6.33584022521972656
649691.473458622582 7535906.67258045543 6.58996009826660156
649711.467561761499 7535906.67258045543 6.82642984390258789
649731.461664900417 7535906.67258045543 7.00707006454467773
649751.45576803945 7535906.67258045543 7.0757298469543457
649771.449871178367 7535906.67258045543 7.05972003936767578
649791.443974317284 7535906.67258045543 7.00068998336791992
649811.438077456201 7535906.67258045543 6.91042995452880859
649831.432180595235 7535906.67258045543 6.7789301872253418
649851.426283734152 7535906.67258045543 6.61151981353759766
649871.420386873069 7535906.67258045543 6.4626002311706543
649891.414490011986 7535906.67258045543 6.38320016860961914
649911.40859315102 7535906.67258045543 6.38306999206542969
649931.402696289937 7535906.67258045543 6.4366002082824707
649951.396799428854 7535906.67258045543 6.50337982177734375
649971.390902567771 7535906.67258045543 6.58254003524780273
649991.385005706805 7535906.67258045543 6.69694995880126953
650011.379108845722 7535906.67258045543 6.85286998748779297
649311.585498982575 7535886.67847731616 2.68814992904663086
649331.579602121492 7535886.67847731616 2.33357000350952148
649351.573705260409 7535886.67847731616 1.96595001220703125
649371.567808399443 7535886.67847731616 1.5887000560760498
649391.56191153836 7535886.67847731616 1.2071000337600708
649411.556014677277 7535886.67847731616 0.943540990352630615
649431.550117816194 7535886.67847731616 0.826590001583099365
649451.544220955228 7535886.67847731616 1.01656997203826904
649471.538324094145 7535886.67847731616 1.54815995693206787
649491.532427233062 7535886.67847731616 2.06227993965148926
649511.526530371979 7535886.67847731616 2.40027999877929688
649531.520633511012 7535886.67847731616 2.55514001846313477
649551.51473664993 7535886.67847731616 2.48559999465942383
649571.508839788847 7535886.67847731616 2.2691500186920166
649591.502942927764 7535886.67847731616 2.15368008613586426
649611.497046066797 7535886.67847731616 2.28970003128051758
649631.491149205714 7535886.67847731616 2.7151799201965332
649651.485252344632 7535886.67847731616 3.27946996688842773
649671.479355483665 7535886.67847731616 3.75810003280639648
649691.473458622582 7535886.67847731616 4.14734983444213867
649711.467561761499 7535886.67847731616 4.50118017196655273
649731.461664900417 7535886.67847731616 4.7862701416015625
649751.45576803945 7535886.67847731616 4.9507598876953125
649771.449871178367 7535886.67847731616 4.98843002319335938
649791.443974317284 7535886.67847731616 4.91854000091552734
649811.438077456201 7535886.67847731616 4.76785993576049805
649831.432180595235 7535886.67847731616 4.58099985122680664
649851.426283734152 7535886.67847731616 4.42297983169555664
649871.420386873069 7535886.67847731616 4.33724021911621094
649891.414490011986 7535886.67847731616 4.31650018692016602
649911.40859315102 7535886.67847731616 4.34191989898681641
649931.402696289937 7535886.67847731616 4.42140007019042969
649951.396799428854 7535886.67847731616 4.57758998870849609
649971.390902567771 7535886.67847731616 4.7980499267578125
649991.385005706805 7535886.67847731616 5.0474400520324707
650011.379108845722 7535886.67847731616 5.30476999282836914
649311.585498982575 7535866.68437417783 1.41823005676269531
649331.579602121492 7535866.68437417783 0.943075001239776611
649351.573705260409 7535866.68437417783 0.472404986619949341
649371.567808399443 7535866.68437417783 0.0660120025277137756
649471.538324094145 7535866.68437417783 0.172489002346992493
649491.532427233062 7535866.68437417783 0.576029002666473389
649511.526530371979 7535866.68437417783 0.908685982227325439
649531.520633511012 7535866.68437417783 1.0921100378036499
649551.51473664993 7535866.68437417783 0.965004980564117432
649571.508839788847 7535866.68437417783 0.531337976455688477
649591.502942927764 7535866.68437417783 0.205289006233215332
649611.497046066797 7535866.68437417783 0.164186000823974609
649631.491149205714 7535866.68437417783 0.544674992561340332
649651.485252344632 7535866.68437417783 1.17896997928619385
649671.479355483665 7535866.68437417783 1.65340995788574219
649691.473458622582 7535866.68437417783 2.03364992141723633
649711.467561761499 7535866.68437417783 2.45682001113891602
649731.461664900417 7535866.68437417783 2.81637001037597656
649751.45576803945 7535866.68437417783 3.03678011894226074
649771.449871178367 7535866.68437417783 3.10448002815246582
649791.443974317284 7535866.68437417783 3.01945996284484863
649811.438077456201 7535866.68437417783 2.80707001686096191
649831.432180595235 7535866.68437417783 2.54905009269714355
649851.426283734152 7535866.68437417783 2.38888001441955566
649871.420386873069 7535866.68437417783 2.38310003280639648
649891.414490011986 7535866.68437417783 2.43664002418518066
649911.40859315102 7535866.68437417783 2.48482990264892578
649931.402696289937 7535866.68437417783 2.56711006164550781
649951.396799428854 7535866.68437417783 2.80112004280090332
649971.390902567771 7535866.68437417783 3.15106010437011719
649991.385005706805 7535866.68437417783 3.51138997077941895
650011.379108845722 7535866.68437417783 3.84454989433288574
649311.585498982575 7535846.69027103856 0.498257994651794434
649531.520633511012 7535846.69027103856 0.204818993806838989
649551.51473664993 7535846.69027103856 0.199228003621101379
649651.485252344632 7535846.69027103856 0.0622862987220287323
649671.479355483665 7535846.69027103856 0.337287992238998413
649691.473458622582 7535846.69027103856 0.514981985092163086
649711.467561761499 7535846.69027103856 0.967790007591247559
649731.461664900417 7535846.69027103856 1.31220996379852295
649751.45576803945 7535846.69027103856 1.52581000328063965
649771.449871178367 7535846.69027103856 1.60696005821228027
649791.443974317284 7535846.69027103856 1.51833999156951904
649811.438077456201 7535846.69027103856 1.26496994495391846
649831.432180595235 7535846.69027103856 0.924750983715057373
649851.426283734152 7535846.69027103856 0.750469982624053955
649871.420386873069 7535846.69027103856 0.865728974342346191
649891.414490011986 7535846.69027103856 1.00111997127532959
649911.40859315102 7535846.69027103856 1.07061004638671875
649931.402696289937 7535846.69027103856 1.12328994274139404
649951.396799428854 7535846.69027103856 1.40318000316619873
649971.390902567771 7535846.69027103856 1.82025003433227539
649991.385005706805 7535846.69027103856 2.22166991233825684
650011.379108845722 7535846.69027103856 2.57451009750366211
649711.467561761499 7535826.6961678993 0.219043001532554626
649731.461664900417 7535826.6961678993 0.370763987302780151
649751.45576803945 7535826.6961678993 0.519746005535125732
649771.449871178367 7535826.6961678993 0.616306006908416748
649791.443974317284 7535826.6961678993 0.55112302303314209
649811.438077456201 7535826.6961678993 0.332673013210296631
649831.432180595235 7535826.6961678993 0.0243398994207382202
649851.426283734152 7535826.6961678993 -0.123314999043941498
