649412.475713054 7536570.76057892 19.0 0 5.173782383768124 0
649408.768593422 7536471.73300802 21.5 0 5.173782383768124 0
649404.061845756 7536372.69239732 21.3 0 5.173782383768124 0
649394.37003044 7536272.58696717 19.0 0 5.173782383768124 0
649387.677066533 7536172.52065803 14.5 0 5.173782383768124 0
649383.904715039 7536078.49118851 7.9 0 5.173782383768124 0
649518.435427247 7536572.1428449 17.4 0 5.173782383768124 0
649519.817688869 7536466.1831262 20.9 0 5.173782383768124 0
649511.0603004 7536371.08882602 21.3 0 5.173782383768124 0
649505.314804424 7536275.03402693 18.9 0 5.173782383768124 0
649495.62298052 7536174.9285888 16.6 0 5.173782383768124 0
649482.945328215 7536073.78441246 9.6 0 5.173782383768124 0
649622.365348029 7536652.48205673 10.0 0 5.173782383768124 0
649614.555432976 7536561.39926821 17.5 0 5.173782383768124 0
649613.860213021 7536461.41118113 19.1 0 5.173782383768124 0
649604.129283893 7536364.30459332 19.1 0 5.173782383768124 0
649599.435567305 7536264.26434656 17.7 0 5.173782383768124 0
649592.742602278 7536164.1980204 16.0 0 5.173782383768124 0
649593.020889785 7536066.22221396 12.8 0 5.173782383768124 0
649583.316008355 7535967.11638956 5.5 0 5.173782383768124 0
649715.277856929 7536657.69328724 9.7 0 5.173782383768124 0
649713.504783602 7536563.68987274 15.3 0 5.173782383768124 0
649714.913125744 7536455.7308966 16.8 0 5.173782383768124 0
649709.115475891 7536363.67456174 17.1 0 5.173782383768124 0
649698.410998279 7536264.5556864 16.5 0 5.173782383768124 0
649696.768293502 7536160.55607102 15.4 0 5.173782383768124 0
649689.997080649 7536066.48745788 12.7 0 5.173782383768124 0
649682.39575711 7535959.41074382 5.7 0 5.173782383768124 0
649827.982683302 7536755.14342754 0.2 0 5.173782383768124 0
649816.435100983 7536644.01605722 10.7 0 5.173782383768124 0
649816.661267244 7536550.03871531 13.7 0 5.173782383768124 0
649811.033146528 7536444.9873095 15.2 0 5.173782383768124 0
649804.274995699 7536349.91906655 16.2 0 5.173782383768124 0
649799.62039781 7536246.87994248 16.3 0 5.173782383768124 0
649795.952371447 7536144.85347899 15.6 0 5.173782383768124 0
649791.154317948 7536052.81017827 12.9 0 5.173782383768124 0
649782.462094483 7535952.71775713 5.9 0 5.173782383768124 0
649920.091193123 7536745.34732243 1.2 0 5.173782383768124 0
649922.303567926 7536652.39567378 9.6 0 5.173782383768124 0
649920.59569582 7536553.39414156 13.6 0 5.173782383768124 0
649916.966815938 7536448.36880702 14.8 0 5.173782383768124 0
649909.222084893 7536352.28789529 15.6 0 5.173782383768124 0
649892.689403305 7536240.0956995 16.0 0 5.173782383768124 0
649894.862619389 7536150.14291135 15.6 0 5.173782383768124 0
649888.169644267 7536050.07656088 12.5 0 5.173782383768124 0
649875.531097947 7535945.93349145 5.1 0 5.173782383768124 0
